1799
52.5773  393.462  74.4025 
397.441  851.077  281.469 
407.037  158.584  491.112 
705.164  838.429  726.955 
800.069  758.955  534.073 
921.719  125.424  993.535 
721.972  77.0716  902.29 
325.787  304.824  405.36 
728.288  995.105  589.274 
11.8312  950.156  832.563 
165.535  3.74059  227.018 
238.956  400.2  79.0871 
519.444  806.256  236.675 
11.5626  512.426  76.0959 
737.536  313.502  834.055 
272.615  236.228  958.481 
267.157  957.218  36.5452 
170.453  284.013  340.373 
574.832  13.307  336.47 
165.113  24.1567  287.619 
996.695  188.71  290.363 
224.72  426.685  689.567 
302.826  945.147  496.815 
538.52  955.729  10.233 
613.635  694.271  322.739 
448.696  965.905  557.97 
408.184  234.068  516.18 
443.749  403.54  799.197 
783.141  977.391  811.507 
120.618  143.511  834.668 
407.255  141.213  24.37 
696.638  364.951  450.059 
387.211  666.795  396.198 
883.045  206.322  352.918 
892.296  818.974  48.1819 
216.042  268.676  15.0787 
773.031  675.88  248.151 
290.219  120.636  650.695 
90.4218  902.795  629.078 
900.948  24.419  771.592 
736.622  430.693  911.808 
760.011  128.337  277.751 
211.077  514.566  943.55 
606.295  398.618  150.863 
958.232  291.921  968.842 
7.42083  506.981  238.51 
21.5183  281.02  913.394 
268.688  570.256  35.0213 
918.401  659.697  936.819 
548.486  561.651  960.242 
321.085  299.28  391.927 
233.9  60.2981  519.267 
510.67  270.393  34.8259 
455.228  875.707  432.447 
605.11  834.945  723.372 
574.958  841.385  231.346 
812.487  861.921  511.369 
726.888  131.617  82.617 
760.928  51.0246  741.317 
698.755  598.529  303.961 
660.004  918.633  602.244 
52.9379  153.54  661.546 
571.224  663.229  930.944 
605.069  119.463  807.643 
38.5234  723.591  643.58 
760.914  299.556  485.957 
991.279  113.05  348.87 
503.654  838.956  479.49 
585.29  600.891  529.518 
327.614  300.652  129.04 
630.594  959.674  48.6641 
233.845  13.6192  201.208 
894.411  583.862  863.44 
826.361  189.937  981.907 
635.011  227.48  706.489 
279.598  987.413  7.03774 
764.572  979.698  119.092 
114.45  484.36  957.051 
592.958  70.6567  558.934 
123.484  397.29  858.59 
251.542  28.8909  819.257 
299.225  261.755  831.879 
499.451  157.172  416.733 
363.899  982.552  605.674 
346.813  618.57  832.158 
54.3095  897.186  820.562 
60.366  662.765  801.253 
178.476  776.233  286.604 
136.534  370.199  356.264 
694.487  492.701  752.558 
554.084  743.262  780.452 
374.347  43.4942  43.1996 
207.234  541.965  199.376 
622.986  904.882  182.919 
229.667  252.701  800.493 
62.8325  306.029  698.67 
882.414  365.414  362.426 
684.673  542.908  139.652 
970.296  678.46  508.854 
327.567  373.954  2.54804 
81.1322  927.056  744.814 
860.604  302.41  787.311 
902.822  508.662  330.268 
103.205  132.655  236.142 
285.143  361.342  487.846 
86.6426  423.192  792.878 
784.332  306.613  159.284 
147.765  990.305  701.195 
286.437  961.607  380.648 
794.31  290.181  753.606 
795.877  370.332  681.653 
541.698  231.942  983.068 
330.016  135.771  492.722 
659.303  237.994  624.382 
894.464  522.155  984.726 
383.317  607.816  408.91 
177.203  393.155  714.527 
335.506  539.939  705.823 
37.7087  825.394  668.422 
417.375  620.711  957.607 
171.988  417.594  328.93 
852.66  958.31  559.877 
836.735  289.334  694.65 
330.464  947.655  931.648 
953.865  843.126  454.796 
939.597  227.45  63.6044 
349.516  403.672  455.763 
65.0491  738.196  994.705 
769.891  774.923  821.091 
439.321  193.306  442.793 
397.935  364.313  859.39 
725.884  217.98  818.693 
286.768  55.7218  109.018 
980.437  385.205  57.6655 
913.092  340.076  899.796 
368.896  280.681  128.238 
431.519  629.215  530.913 
886.3  693.282  270.101 
882.013  464.18  46.0167 
704.11  902.52  238.326 
147.91  301.461  601.642 
8.30796  28.3519  818.625 
826.019  314.138  873.35 
934.056  295.582  259.547 
990.74  209.681  598.627 
891.543  577.595  878.312 
20.7874  10.1207  508.518 
550.719  895.44  202.793 
819.839  778.458  665.976 
864.875  483.576  569.488 
104.208  630.505  869.952 
704.869  637.831  897.308 
524.501  464.857  212.438 
398.858  399.92  507.023 
657.425  391.667  715.709 
257.06  284.217  294.296 
136.379  304.023  303.42 
643.916  853.76  199.852 
845.727  674.606  977.314 
512.711  540.488  461.881 
83.2062  643.714  93.3775 
952.178  349.589  730.212 
850.492  873.108  196.062 
63.938  272.973  594.985 
569.98  929.417  985.656 
286.696  187.484  270.864 
580.01  322.881  573.89 
882.449  965.817  428.642 
83.307  812.551  104.241 
61.6276  326.269  643.733 
522.528  408.493  288.439 
614.924  361.678  637.032 
346.143  213.178  511.132 
541.223  276.134  783.109 
137.215  845.133  713.519 
123.877  132.835  900.007 
393.76  711.864  223.88 
966.669  595.319  190.688 
396.319  677.645  4.23125 
499.579  738.291  329.504 
144.319  261.825  737.001 
431.777  875.768  99.6705 
69.815  222.917  311.852 
579.966  763.158  586.989 
364.083  899.392  433.114 
78.6086  24.2755  564.953 
977.634  417.054  277.808 
202.522  384.73  872.131 
392.229  780.067  550.769 
395.479  280.654  290.052 
724.001  423.99  550.881 
462.009  854.785  427.639 
560.698  923.619  649.561 
871.569  504.591  413.711 
459.565  867.692  314.094 
891.698  945.319  337.373 
457.659  923.96  753.431 
734.486  127.489  139.154 
607.626  518.736  918.225 
159.4  913.233  199.87 
448.471  638.242  622.865 
998.37  101.257  478.641 
427.016  660.974  403.252 
77.5841  533.549  906.847 
490.313  992.134  775.531 
803.427  884.839  721.843 
141.807  343.504  646.796 
894.258  78.9974  773.288 
34.4179  685.641  293.016 
951.662  844.06  207.242 
152.538  293.538  844.487 
774.421  292.915  944.747 
254.069  718.95  606.714 
656.34  795.553  141.256 
564.194  286.873  134.382 
340.732  91.3066  20.2129 
63.5829  232.133  362.721 
709.397  127.397  440.722 
483.692  160.833  127.355 
775.727  113.502  970.42 
981.987  265.057  264.949 
827.481  40.4855  556.868 
773.235  293.574  276.81 
380.957  948.932  73.3549 
521.232  514.133  359.231 
654.632  853.884  449.542 
673.864  916.486  680.678 
37.5922  626.89  807.079 
477.333  111.589  966.916 
603.706  886.335  81.4088 
575.133  869.328  345.47 
839.101  697.815  384.96 
396.976  472.059  677.537 
672.805  852.034  627.461 
745.179  374.273  142.586 
105.418  29.9117  995.474 
553.978  702.794  912.952 
235.663  739.405  540.835 
43.7495  217.745  651.427 
11.6721  820.471  538.753 
92.0997  396.611  409.073 
436.589  236.718  107.881 
820.567  632.714  578.944 
499.11  306.525  431.969 
127.579  52.7108  805.246 
269.184  157.147  834.161 
265.665  710.144  537.948 
179.625  944.825  278.344 
719.477  987.594  495.094 
371.911  998.284  316.556 
909.683  91.3907  712.171 
319.764  526.998  947.892 
426.664  348.571  581.598 
6.61465  846.701  887.127 
437.603  973.298  938.841 
243.855  243.488  96.98 
79.0235  508.171  806.128 
615.99  686.814  751.945 
893.353  407.298  740.531 
389.454  778.228  739.807 
705.029  688.918  830.202 
418.206  9.68886  358.191 
367.106  435.371  705.767 
947.723  441.004  553.461 
835.856  877.626  527.75 
775.705  122.488  770.242 
871.703  200.531  279.405 
678.837  815.539  965.224 
431.79  709.899  373.515 
173.327  100.359  152.734 
912.154  804.407  840.656 
743.362  223.619  849.348 
102.562  589.743  285.713 
807.348  538.473  725.721 
361.815  375.335  604.338 
888.584  152.046  725.831 
659.833  24.7563  925.364 
938.258  702.612  741.895 
904.489  135.409  452.785 
279.011  307.755  552.148 
430.764  220.916  357.546 
272.427  963.298  580.169 
122.782  66.8654  170.904 
407.513  873.232  708.38 
134.24  236.053  84.7074 
737.597  125.644  235.757 
464.435  784.495  259.517 
390.806  723.761  961.133 
133.708  629.257  97.5345 
585.511  907.286  404.294 
138.666  339.055  624.214 
495.231  610.5  588.502 
76.4074  732.301  654.372 
246.33  140.821  528.595 
953.73  274.079  763.651 
39.4439  12.6841  888.299 
274.22  476.138  673.787 
532.756  865.962  398.54 
494.896  998.688  28.7882 
591.45  585.206  935.077 
994.762  722.891  275.125 
619.983  219.129  884.63 
209.492  294.555  617.922 
862.883  539.904  757.747 
392.484  494.64  32.8187 
157.143  533.102  44.5065 
46.4493  806.342  519.647 
719.255  340.104  386.602 
118.802  834.02  386.282 
146.608  426.476  970.492 
82.6932  422.245  694.375 
356.837  43.2351  912.508 
242.473  251.745  208.056 
859.414  115.635  746.963 
618.169  507.138  242.595 
650.006  663.3  774.702 
693.532  708.768  582.035 
214.186  429.029  921.144 
599.806  546.85  756.155 
985.107  692.476  183.624 
956.606  774.188  604.873 
651.988  132.032  647.112 
565.503  373.524  897.862 
772.578  233.945  14.4884 
520.548  851.132  520.63 
762.162  502.145  184.921 
537.871  196.683  892.693 
120.914  409.887  322.714 
43.0645  10.7005  868.566 
798.239  994.826  562.035 
980.882  952.438  337.215 
586.762  605.433  468.251 
234.881  171.943  840.779 
133.75  943.539  75.7159 
147.257  465.094  925.852 
666.905  228.263  428.989 
850.846  765.152  624.676 
744.546  885.085  35.5548 
68.2667  927.168  45.259 
935.852  726.414  41.077 
498.894  708.302  992.519 
835.129  296.071  598.945 
304.387  529.971  769.892 
146.173  662.738  714.424 
220.907  809.014  180.51 
147.766  476.926  407.777 
575.774  328.779  173.921 
201.457  74.3313  59.9978 
236.03  141.617  986.169 
280.308  78.4757  713.575 
320.404  576.389  422.868 
313.93  412.524  717.943 
911.894  715.93  248.904 
682.793  861.121  910.647 
398.224  83.0356  720.652 
577.753  229.821  198.57 
984.548  804.613  526.352 
159.476  7.07647  599.687 
218.493  242.125  740.308 
205.669  521.451  817.787 
918.262  840.874  395.168 
342.139  155.811  806.697 
61.0876  68.7116  523.618 
309.011  750.523  385.732 
220.664  149.754  467.771 
940.335  726.526  696.595 
139.912  712.081  502.2 
665.283  870.575  508.28 
265.978  90.0755  749.409 
7.29296  294.764  271.853 
824.099  214.033  113.719 
220.274  555.19  268.533 
27.9775  615.295  336.249 
550.615  923.325  87.7642 
935.364  144.996  236.522 
404.143  86.3377  962.052 
101.745  225.268  675.124 
602.964  889.571  546.692 
112.252  156.555  635.772 
860.68  162.866  929.538 
133.54  985.984  144.563 
246.277  207.265  698.756 
513.829  234.261  315.044 
849.097  783.894  239.361 
935.88  720.266  383.36 
173.41  125.416  468.702 
136.468  226.179  692.973 
810.612  828.162  583.536 
358.311  939.432  739.095 
993.1  801.119  900.965 
923.646  933.677  887.941 
69.2161  180.961  96.198 
766.991  693.81  329.463 
83.0419  543.915  114.35 
321.421  480.802  833.619 
703.8  653.23  958.038 
173.508  788.717  185.209 
865.502  600.336  14.3633 
450.044  957.666  952.799 
190.146  951.772  754.91 
92.118  876.426  689.578 
979.078  944.659  869.544 
76.2828  712.658  564.346 
404.764  794.719  109.252 
518.133  117.147  589.058 
352.759  819.965  243.28 
311.803  992.492  32.9898 
496.031  859  632.33 
509.413  310.051  590.986 
463.22  499.216  543.751 
219.136  590.352  421.168 
907.734  570.437  366.82 
778.285  645.738  80.4695 
343.637  51.5092  874.191 
451.909  568.66  990.341 
41.9742  920.437  811.298 
284.273  233.247  804.783 
316.282  728.297  664.775 
947.63  238.717  973.83 
539.624  700.955  474.038 
84.3813  919.11  65.3816 
504.568  827.851  634.822 
870.407  607.142  281.551 
949.895  949.799  332.065 
825.093  402.715  899.729 
816.441  443.707  821.157 
628.747  727  55.3958 
434.537  44.288  782.696 
100.318  990.937  22.4052 
75.1547  531.567  722.364 
548.211  614.966  642.466 
612.611  120.541  471.309 
248.44  989.966  79.4429 
529.011  940.867  30.234 
860.095  766.967  431.952 
760.829  584.416  874.663 
582.993  214.17  602.655 
637.408  647.724  645.947 
421.111  747.061  637.876 
442.536  821.234  170.434 
165.906  370.452  784.403 
807.391  982.081  903.949 
279.707  231.528  894.907 
358.169  759.557  836.767 
387.421  620.658  604.726 
818.392  382.495  190.134 
694.064  964.507  403.307 
297.725  602.921  52.0235 
942.69  25.04  798.088 
581.573  466.594  620.313 
751.026  631.519  989.769 
536.437  439.916  972.842 
441.393  718.642  205.362 
337.306  77.8163  963.922 
175.081  464.256  585.572 
778.825  283.655  967.07 
967.978  976.737  932.569 
372.292  275.469  536.482 
423.334  219.167  560.527 
222.429  799.759  28.1124 
841.762  551.791  658.635 
832.538  89.2349  99.5431 
806.387  529.646  817.188 
12.7556  865.971  894.008 
975.697  42.0582  359.256 
562.276  819.902  641.915 
530.354  788.886  619.643 
463.931  162.186  894.116 
1.42049  584.539  114.275 
560.966  805.987  913.036 
588.097  648.756  465.82 
247.739  482.3  554.058 
346.301  289.694  84.6962 
164.496  301.468  949.671 
59.5113  278.172  990.733 
417.786  839.467  811.627 
60.7077  370.828  601.505 
679.369  833.777  762.695 
574.492  834.215  348.225 
687.786  396.188  155.204 
601.829  983.304  802.964 
68.655  232.049  286.257 
621.732  577.369  574.954 
705.447  740.883  875.426 
656.125  799.414  154.589 
647.865  218.206  993.06 
460.499  277.933  364.879 
63.0115  956.32  199.648 
824.725  531.82  34.8552 
173.958  220.611  430.047 
328.181  821.458  414.343 
132.152  889.132  645.396 
417.427  511.87  223.757 
991.399  218.324  963.643 
867.833  873.467  764.049 
23.4284  522.339  981.259 
17.4951  981.857  260.183 
381.393  45.8751  217.496 
580.059  869.618  748.318 
613.934  44.5834  967.933 
44.9875  371.783  790.383 
458.349  502.953  680.506 
104.753  919.399  193.368 
327.528  911.805  410.696 
292.179  780.644  285.156 
57.2353  803.092  806.499 
39.5013  819.605  789.347 
298.703  202.005  834.226 
515.217  781.082  704.836 
264.543  396.023  748.424 
233.482  440.028  121.199 
24.8724  897.397  623.157 
704.398  3.15555  543.548 
896.785  329.702  456.345 
308.488  620.9  237.981 
592.662  677.153  42.0642 
400.168  715.674  860.673 
190.522  15.3835  63.6697 
25.7553  529.619  843.756 
729.611  793.181  240.771 
479.042  27.6693  679.803 
599.259  51.5603  578.192 
223.423  754.976  580.351 
765.988  652.768  909.057 
223.34  960.275  530.948 
460.34  553.944  209.095 
501.423  953.13  923.771 
363.103  144.659  938.159 
425.791  169.433  468.77 
270.555  898.062  262.942 
510.343  378.111  289.616 
191.154  976.389  340.179 
768.365  200.819  96.1474 
349.723  965.826  747.919 
259.787  190.172  709.185 
789.754  649.531  264.121 
997.866  151.961  218.244 
922.645  514.082  361.906 
861.811  938.892  530.342 
331.587  210.454  429.397 
593.548  719.816  806.512 
882.183  909.989  783.892 
223.369  679.36  983.716 
318.535  30.0891  950.533 
67.4613  288.894  141.699 
775.666  79.654  790.233 
40.7945  78.5272  941.198 
258.056  2.179  456.273 
618.982  863.008  396.157 
150.332  195.603  605.614 
578.747  788.17  326.422 
386.266  671.359  237.403 
171.166  893.747  915.767 
155.888  213.289  944.859 
107.429  279.769  234.745 
248.146  56.4413  313.403 
39.3868  96.2544  390.934 
979.604  353.329  392.117 
436.884  971.331  256.116 
832.059  122.669  450.723 
438.681  700.434  239.885 
764.121  87.7079  910.249 
2.53158  257.892  804.988 
917.317  412.8  19.2684 
863.184  519.247  298.041 
98.9352  766.412  353.485 
411.356  804.818  448.743 
801.309  785.428  801.078 
194.433  223.319  773.399 
449.568  56.3847  895.072 
899.31  494.084  596.499 
140.202  259.212  683.21 
51.4583  260.762  940.107 
855.464  179.086  353.898 
873.752  43.2761  872.149 
172.799  141.23  639.554 
525.305  551.605  445.363 
973.067  353.921  231.784 
775.152  547.372  454.105 
549.558  995.959  509.494 
445.637  896.276  4.57022 
43.143  37.4847  262.786 
725.372  87.9615  522.552 
666.486  942.444  700.642 
21.392  817.203  742.922 
892.561  989.022  883.156 
533.122  515.332  435.752 
977.504  489.406  788.677 
210.295  265.564  337.041 
663.419  814.141  333.992 
173.921  260.784  231.259 
177.51  302.946  267.748 
439.315  29.3249  354.713 
960.886  694.829  298.15 
662.535  715.24  116.345 
406.464  608.807  106.358 
290.627  142.936  620.694 
725.398  121.447  111.093 
515.082  330.76  375.661 
851.142  993.198  190.792 
186.142  168.125  450.58 
416.419  344.653  752.53 
683.186  782.987  780.858 
38.9065  744.88  476.68 
336.075  408.422  192.912 
451.439  813.904  800.724 
556.816  105.538  942.663 
178.518  829.954  65.1018 
288.629  346.043  394.865 
663.308  198.193  389.055 
853.119  383.353  556.184 
304.707  798.791  899.841 
58.2443  482.984  683.82 
838.121  520.909  429.691 
315.809  856.002  837.117 
507.74  308.448  652.013 
309.471  864.283  756.555 
253.141  43.8076  587.501 
317.261  331.455  932.548 
711.146  993.782  131.733 
101.208  847.908  514.089 
656.41  153.622  313.872 
557.258  210.885  795.86 
242.085  50.0135  317.76 
670.795  364.841  174.755 
508.919  871.6  482.207 
161.94  182.077  347.482 
917.513  434.237  390.293 
506.021  750.517  720.753 
439.576  462.67  715.526 
570.327  562.896  564.427 
85.423  220.313  717.053 
398.313  776.589  926.941 
195.18  19.6819  975.959 
511.958  689.496  341.791 
685.732  199.423  214.383 
168.946  360.382  395.464 
515.448  278.902  828.705 
904.76  783.94  580.214 
626.519  224.524  43.8754 
343.052  793.87  605.775 
906.497  878.311  825.092 
624.557  277.632  602.673 
552.505  471.83  621.358 
529.471  982.807  311.847 
870.282  669.546  510.273 
85.6715  837.512  869.658 
480.154  353.966  149.551 
309.866  259.732  932.496 
889.099  885.271  158.011 
931.993  229.329  950.884 
538.775  136.834  830.187 
364.874  760.409  108.81 
966.566  313.921  579.643 
588.931  842.411  563.442 
899.797  713.699  233.981 
411.077  798.389  72.4844 
281.743  279.551  425.454 
430.312  588.435  684.191 
363.816  478.541  570.453 
520.846  411.54  798.787 
472.737  949.334  934.623 
303.932  315.214  696.024 
411.76  282.787  10.9379 
990.423  870.736  852.352 
554.872  771.539  567.043 
787.872  183.623  366.423 
859.375  464.385  644.978 
285.836  893.716  234.405 
969.046  258.538  711.949 
540.506  778.402  124.482 
340.299  252.146  74.8073 
275.93  555.097  389.025 
970.974  965.876  670.815 
980.93  957.305  542.544 
834.289  513.184  315.075 
402.34  302.063  497.702 
767.782  162.444  961.091 
413.767  447.299  855.799 
647.191  417.35  115.329 
360.147  956.875  892.735 
483.647  298.181  145.873 
557.473  573.13  699.973 
945.517  545.11  666.841 
617.339  527.047  625.139 
160.889  362.344  139.314 
474.983  763.702  440.38 
971.705  532.492  601.827 
933.802  945.277  50.118 
790.609  593.475  466.473 
904.956  952.64  424.339 
798.698  437.293  721.525 
943.591  993.785  295.647 
644.571  940.309  839.76 
312.418  558.655  367.799 
936.575  718.563  729.147 
76.8967  194.553  493.84 
516.295  167.264  27.3236 
119.131  102.073  971.605 
168.267  891.701  566.072 
633.759  797.664  519.703 
59.105  597.369  956 
779.649  541.966  950.778 
76.3015  187.543  892.079 
915.08  498.98  451.726 
283.887  436.562  171.28 
14.0397  512.477  364.837 
506.898  29.7803  531.105 
533.241  147.929  632.183 
505.852  315.215  524.875 
72.9312  947.992  323.531 
591.653  8.104  919.904 
548.662  786.771  462.862 
500.446  862.09  649.409 
393.532  778.177  149.381 
844.276  63.0709  584.947 
16.5644  76.1292  98.4172 
380.42  582.046  127.201 
910.544  116.295  274.134 
543.734  621.166  588.353 
69.6159  693.115  537.337 
392.166  285.776  544.446 
313.077  833.456  332.208 
774.958  334.909  195.291 
425.373  727.46  972.472 
573.773  572.744  36.535 
159.727  588.326  111.668 
257.163  967.766  692.718 
383.383  879.316  808.017 
656.536  424.056  430.174 
245.896  492.691  124.282 
782.253  883.875  409.061 
327.705  197.959  243.509 
658.932  971.935  577.421 
853.241  398.314  305.874 
826.72  971.106  877.621 
862.275  131.84  466.94 
972.961  388.022  435.696 
666.686  770.424  316.004 
475.71  427.967  739.064 
904.903  672.882  232.747 
30.1912  456.142  117.614 
438.271  782.865  314.576 
680.798  442.804  287.503 
259.228  297.052  684.821 
564.119  124.779  656.919 
442.747  986.072  787.762 
908.705  960.039  176.777 
345.409  627.733  946.204 
660.431  104.449  375.164 
400.503  10.3587  49.038 
632.269  39.5684  504.184 
748.901  476.858  288.042 
64.4846  158.663  729.849 
351.007  416.909  27.893 
36.8342  980.047  151.676 
692.772  423.8  138.74 
481.541  333.512  99.7717 
657.337  677.939  726.508 
604.549  339.378  829.961 
978.731  738.899  839.324 
28.7763  372.175  877.895 
531.979  122.083  355.745 
819.039  185.585  513.413 
549.895  535.611  929.325 
576.807  571.463  910.365 
727.502  265.241  335.157 
865.261  745.802  667.673 
964.051  404.146  346.605 
691.566  9.70162  684.987 
522.535  987.452  424.878 
362.865  17.2346  796.057 
241.767  548.232  917.143 
596.532  368.278  103.72 
110.952  917.191  638.335 
41.285  495.005  210.791 
950.669  223.513  475.036 
286.833  89.7802  221.83 
953.525  54.8378  624.98 
301.137  745.422  633.685 
985.143  268.963  622.128 
411.028  630.847  638.367 
208.092  871.632  187.59 
126.242  469.172  554.872 
228.981  579.143  473.055 
866.335  619.447  967.064 
78.132  571.121  191.568 
552.187  856.972  280.353 
773.036  811.504  334.194 
399.022  113.648  80.6081 
33.7139  99.7968  348.575 
654.861  509.843  978.426 
294.235  716.954  851.05 
480.844  842.213  321.214 
36.7228  72.201  899.361 
508.796  937.554  519.799 
476.867  16.693  91.9123 
667.454  567.898  947.888 
946.825  341.94  760.384 
282.026  739.981  873.034 
361.653  772.713  971.836 
709.247  428.58  482.671 
688.68  721.834  200.616 
540.737  203.685  43.8211 
860.97  239.426  115.026 
761.337  747.241  53.572 
282.144  225.115  69.2688 
373.075  891.587  636.171 
321.97  839.419  977.115 
83.361  122.452  718.088 
955.415  483.123  491.792 
928.257  193.377  919.377 
411.934  881.074  642.203 
611.57  422.817  844.891 
654.409  284.794  85.3089 
768.453  47.1382  831.553 
821.045  328.3  57.6599 
889.332  700.393  948.25 
526.51  23.3708  788.661 
504.631  105.75  910.117 
223.726  62.1716  394.231 
714.537  989.447  586.611 
634.921  402.389  468.677 
278.131  14.9646  890.498 
124.029  668.392  176.284 
208.357  437.853  222.426 
40.9172  259.904  549.73 
97.5959  150.244  251.116 
46.8535  675.772  273.49 
834.533  181.41  378.245 
745.657  404.155  439.419 
140.895  119.7  429.859 
726.525  753.639  831.251 
196.21  32.7767  845.219 
87.7145  155.824  514.604 
263.018  363.2  951.46 
484.461  403.135  212.358 
35.1987  499.749  361.604 
285.334  545.622  38.3689 
557.843  381.162  218.784 
935.105  127.826  621.943 
375.533  267.739  740.646 
804.411  993.283  495.277 
636.669  190.499  527.057 
482.895  277.233  681.885 
996.518  539.269  46.0766 
948.986  24.7367  448.215 
162.35  58.9539  946.968 
522.974  343.306  493.582 
560.361  900.167  873.747 
778.164  836.28  2.56505 
401.113  212.82  269.308 
142.766  18.2368  263.583 
637.062  653.924  453.087 
165.126  137.827  729.324 
846.029  135.352  269.583 
891.125  85.3446  293.324 
340.347  246.713  351.281 
288.323  768.706  693.591 
780.924  330.074  594.75 
655.678  109.245  432.021 
657.262  509.376  643.845 
925.589  651.161  661.085 
190.18  289.229  316.002 
642.286  453.374  452.831 
372.616  300.41  587.187 
641.218  192.542  671.536 
933.56  531.909  917.253 
285.85  819.25  686.95 
978.459  601.18  18.0167 
574.216  257.865  126.265 
7.24522  914.145  634.645 
650.109  840.741  286.798 
312.201  31.9276  575.03 
627.222  673.232  29.3953 
81.0608  46.8543  328.809 
667.267  687.091  520.354 
339.809  621.659  53.2548 
258.069  906.527  871.508 
944.039  885.993  473.68 
961.075  461.216  730.549 
88.3464  467.48  645.686 
722.01  118.596  487.419 
9.81423  429.815  518.35 
583.863  58.0438  192.574 
612.277  138.123  238.432 
940.104  804.409  924.527 
461.467  145.225  547.178 
513.74  402.313  454.697 
386.255  347.359  341.681 
858.953  309.44  801.901 
590.509  396.805  270.372 
237.202  119.822  387.972 
723.64  128.655  816.791 
242.997  711.536  873.838 
434.591  324.82  12.9534 
672.041  265.931  816.366 
597.575  726.417  960.594 
145.76  241.163  363.899 
599.475  626.437  710.263 
940.175  486.398  20.6947 
743.083  77.9144  416.504 
14.4625  314.136  535.329 
401.453  38.7827  662.988 
219.25  280.799  375.516 
94.0957  714.409  699.339 
106.068  387.457  964.274 
921.452  984.051  691.682 
883.054  130.818  931.85 
247.96  729.311  559.279 
957.242  670.493  46.6686 
976.955  414.583  123.587 
394.466  428.064  436.726 
928.814  828.535  474.513 
592.808  48.7927  754.315 
967.343  141.907  469.716 
667.689  246.993  856.175 
632.971  169.452  841.218 
325.66  53.513  971.04 
258.517  300.492  701.342 
816.815  258.74  372.828 
862.503  236.703  786.414 
985.108  630.188  215.471 
422.84  560.008  44.998 
896.372  153.824  92.7945 
651.694  122.174  233.705 
122.416  788.881  479.702 
977.611  422.859  648.158 
819.836  747.538  700.674 
791.882  7.06269  2.15899 
494.231  822.896  259.903 
866.079  686.405  495.61 
653.5  672.52  126.79 
867.989  96.3672  685.801 
912.006  991.758  838.628 
5.80742  644.458  959.805 
238.531  765.893  749.679 
717.252  744.511  173.531 
366.418  565.353  920.073 
68.0994  358.242  926.139 
69.2771  851.492  750.027 
328.199  718.578  437.424 
822.828  373.084  110.937 
948.637  242.08  206.308 
635.445  155.093  199.057 
475.08  159.918  842.519 
435.893  397.468  609.403 
186.58  115.728  354.906 
359.129  481.163  919.263 
280.209  548.282  278.497 
207.356  616.576  130.982 
956.402  943.794  848.563 
394.833  767.629  222.639 
504.788  717.273  463.723 
710.115  353.724  617.819 
908.19  827.822  776.741 
751.716  264.722  175.202 
362.127  450.321  289.933 
716.052  808.468  770.1 
636.322  89.6834  319.373 
913.838  296.058  934.954 
45.8275  253.466  879.741 
893.409  647.318  648.362 
117.056  153.113  366.626 
579.797  862.246  719.355 
198.623  771.444  548.169 
974.383  524.167  811.895 
150.592  885.313  263.207 
439.544  602.371  72.6667 
210.651  239.7  161.354 
529.044  154.546  456.415 
465.004  199.392  708.885 
345.752  93.8081  357.194 
993.133  209.882  509.312 
360.767  788.698  372.551 
81.1286  986.339  144.987 
628.317  961.729  668.157 
441.219  113.328  554.462 
703.445  551.891  157.825 
775.13  761.56  396.53 
935.502  291.61  550.08 
392.924  755.633  748.475 
102.816  102.391  841.287 
459.029  96.5312  52.1607 
967.36  456.317  839.862 
340.917  536.464  827.193 
484.923  165.787  789.913 
154.087  606.024  902.246 
707.568  310.476  455.128 
864.413  86.6123  217.68 
261.949  23.1214  508.293 
811.047  415.064  264.918 
560.529  516.898  366.314 
402.822  974.947  461.849 
454.002  943.313  917.169 
294.871  285.238  454.625 
123.071  769.179  619.415 
912.003  922.285  226.432 
815.256  630.86  535.911 
271.391  496.279  621.527 
488.089  757.246  643.653 
995.401  569.3  59.7087 
261.327  130.835  575.611 
626.66  532.675  551.55 
89.5148  985.696  495.855 
7.69073  281.574  780.095 
461.334  403.663  550.267 
81.7568  316.673  473.544 
307.207  132.936  105.395 
842.137  403.344  600.677 
464.672  890.452  358.915 
109.332  886.861  927.219 
168.058  149.194  59.0455 
742.689  774.872  590.725 
295.246  863.405  577.413 
790.119  870.114  857.991 
571.221  332.455  262.646 
122.495  413.231  578.323 
595.057  719.457  710.262 
699.471  562.601  114.599 
301.156  28.2798  6.04219 
659.09  136.63  891.907 
587.315  303.707  42.0924 
645.38  47.4025  815.968 
237.112  341.666  680.365 
813.544  132.792  551.473 
672.542  703.033  882.932 
934.207  824.546  297.155 
513.537  420.61  17.6035 
224.806  121.088  579.209 
338.423  421.261  606.492 
343.483  81.3583  742.125 
236.397  667.692  46.8243 
277.509  314.079  93.2305 
94.4838  550.21  433.9 
773.869  364.761  565.697 
326.347  38.3094  269.721 
210.286  971.535  95.2587 
506.459  486.079  514.872 
523.082  709.904  634.964 
103.298  49.3333  57.2173 
708.808  391.836  137.579 
451.941  627.252  804.276 
497.783  903.779  119.346 
590.033  997.281  668.559 
24.9409  772.156  34.3113 
589.656  99.5102  71.6244 
858.396  308.815  44.1515 
952.674  814.293  529.234 
468.553  338.382  240.13 
104.524  440.697  288.467 
160.759  150.513  679.306 
297.358  601.472  307.55 
102.64  100.262  212.321 
221.005  689.314  210.594 
888.583  713.274  981.753 
921.912  303.937  82.2552 
992.556  163.339  390.074 
37.7145  117.02  205.359 
565.968  584.591  542.745 
805.116  688.132  982.446 
94.5903  847.911  133.951 
772.915  146.275  734.427 
81.4725  247.934  833.693 
292.812  467.957  523.999 
502.424  357.546  238.265 
485.184  280.467  541.206 
566.458  274.029  703.549 
955.551  310.762  819.572 
161.917  875.749  405.155 
703.68  681.871  94.2798 
687.133  775.48  941.194 
820.103  549.403  88.4616 
555.537  629.894  335.399 
390.237  921.724  802.36 
913.255  425.154  160.899 
152.528  909.357  440.368 
692.753  476.822  713.402 
397.308  433.379  25.1554 
217.887  594.315  899.908 
622.061  299.002  582.771 
715.36  985.154  359.242 
657.561  806.264  907.649 
745.041  362.808  538.534 
81.4476  752.063  461.25 
882.827  666.325  885.409 
44.7323  817.872  795.758 
484.12  511.631  273.571 
198.528  907.958  705.955 
222.702  126.852  301.263 
123.617  747.931  599.268 
705.406  464.298  585.414 
65.656  122.865  392.67 
972.324  866.924  754.481 
511.865  947.391  507.536 
972.134  831.224  174.854 
858.549  874.976  991.73 
655.314  360.102  504.352 
927.904  557.649  413.302 
634.867  779.369  539.156 
935.148  902.005  288.08 
535.424  608.417  751.381 
121.845  673.092  873.249 
513.534  646.423  741.167 
269.022  159.294  689.549 
775.578  132.435  521.766 
949.45  990.002  397.733 
942.186  646.323  756.838 
447.546  575.234  315.479 
859.867  211.108  95.84 
400.03  147.262  996.848 
687.13  681.704  606.257 
439.518  802.568  280.341 
313.774  317.108  925.768 
55.9478  585.148  86.0538 
744.516  361.733  217.492 
267.29  312.189  208.487 
664.041  255.382  853.813 
421.886  701.947  430.039 
736.384  562.82  640.15 
831.243  961.869  786.415 
829.099  650.005  469.112 
436.364  90.5291  272.671 
715.724  403.322  588.783 
642.499  458.288  174.923 
727.571  203.811  535.659 
944.083  470.119  846.851 
153.575  135.167  103.225 
8.3957  556.073  804.176 
437.454  293.464  367.988 
78.6103  125.714  330.848 
864.045  953.831  979.857 
334.164  391.202  71.3777 
605.854  107.933  473.703 
195.644  749.45  930.995 
369.586  478.028  135.798 
904.263  423.117  604.921 
752.121  575.711  739.092 
854.366  583.126  296.157 
659.548  21.5857  588.624 
28.5427  99.2145  713.342 
358.41  962.278  668.165 
339.273  297.449  60.3591 
409.67  902.321  167.295 
882.392  98.9717  915.749 
814.394  467.576  394.769 
949.211  372.846  816.89 
555.139  125.974  393.594 
295.238  979.359  975.723 
590.412  639.914  996.312 
180.044  667.475  96.5188 
892.404  26.891  59.7888 
561.577  365.183  356.241 
620.955  773.871  259.554 
787.269  657.27  357.53 
704.025  472.671  824.11 
99.8008  422.888  197.948 
915.709  977.046  322.925 
310.31  273.289  303.275 
287.04  862.721  942.192 
284.359  43.7718  610.659 
379.897  935.195  636.554 
438.705  497.778  2.72851 
793.965  119.74  775.603 
54.5258  906.027  433.865 
411.074  611.058  905.539 
236.191  709.878  329.419 
433.157  626.595  307.457 
755.1  935.923  579.751 
59.3829  223.97  443.463 
2.58228  507.347  486.239 
612.26  886.263  422.426 
249.82  325.973  919.208 
251.568  120.945  39.9399 
28.1786  174.489  944.97 
461.063  584.582  557.022 
367.609  819.792  267.891 
696.047  253.955  893.49 
4.51082  10.063  830.405 
583.28  68.4644  55.3661 
27.751  70.0651  561.717 
513.009  681.343  448.971 
934.454  930.183  773.948 
854.669  182.758  893.897 
893.628  209.956  69.378 
839.605  670.036  652.964 
397.634  38.6517  473.748 
664.544  733.717  726.707 
559.041  737.246  735.774 
390.452  321.533  803.242 
444.837  348.303  872.31 
7.56112  860.33  554.646 
455.551  795.792  485.821 
230.507  651.468  667.583 
125.411  546.102  876.543 
193.808  386.715  547.571 
845.79  783.367  585.226 
320.545  448.918  319.935 
48.2589  8.96522  58.1732 
783.051  398.436  378.711 
587.299  842.291  726.017 
460.617  848.871  587.339 
16.2705  305.429  384.123 
501.11  534.955  36.5823 
169.7  659.384  581.688 
47.25  852.21  967.406 
593.839  699.008  751.765 
180.072  20.5598  201.675 
499.025  67.8373  209.644 
556.217  849.907  607.083 
933.946  438.213  450.367 
660.97  897.849  300.231 
249.317  913.138  604.663 
632.459  415.255  140.61 
668.06  583.975  798.999 
250.755  630.244  652.201 
219.168  225.089  352.201 
969.953  404.18  371.765 
172.635  902.224  438.605 
381.297  459.448  289.505 
987.399  394.402  726.722 
438.774  56.3787  625.562 
738.022  304.714  539.694 
343.693  936.191  953.952 
483.322  605.258  538.919 
283.327  855.032  170.155 
934.547  75.2074  394.248 
287.755  46.1667  797.432 
658.538  217.82  700.647 
98.1511  598.135  161.087 
386.674  586.541  554.493 
114.403  26.3217  609.875 
738.985  763.363  913.593 
279.686  108.063  850.777 
234.645  590.403  457.027 
772.583  872.748  313.051 
941.757  808.303  387.262 
337.012  97.0644  432.432 
135.451  754.621  649.256 
835.117  851.791  248.383 
995.223  239.472  833.928 
550.723  352.894  859.253 
161.605  92.8858  623.609 
76.2052  371.59  730.675 
926  605.253  322.07 
384.035  378.844  195.811 
696.105  321.607  5.10511 
84.374  657.638  101.173 
515.826  792.108  854.798 
166.088  628.231  707.581 
413.49  624.461  946.057 
248.426  176.19  299.944 
108.687  336.814  391.833 
731.314  412.038  762.426 
462.996  339.045  368.672 
784.085  722.099  746.519 
978.914  419.21  69.1181 
983.038  502.602  725.76 
85.2183  19.4348  518.859 
939.036  184.541  148.082 
647.624  597.051  771.546 
594.688  844.495  946.74 
893.651  952.2  284.547 
286.491  684.521  695.588 
49.9239  148.524  35.6253 
417.614  931.627  756.727 
165.14  911.549  176.929 
233.277  895.593  678.536 
958.056  979.83  696.974 
477.922  919.872  880.52 
625.022  568.503  478.563 
397.576  164.198  324.05 
345.324  58.8556  277.242 
628.889  344.364  960.768 
325.484  393.307  110.285 
360.128  809.94  42.9038 
117.863  974.099  953.456 
293.811  208.383  850.041 
971.366  167.445  830.863 
669.347  644.386  751.727 
550.874  270.414  321.223 
30.444  667.009  484.425 
353.513  13.3387  542.284 
629.775  641.246  885.652 
591.549  965.749  279.951 
700.853  326.883  90.8828 
742.775  443.763  65.9734 
697.238  736.593  273.359 
548.286  708.966  439.808 
380.156  379.32  85.1861 
132.891  929.212  354.604 
453.132  958.676  22.605 
936.575  313.195  34.9474 
479.866  941.987  675.197 
366.526  534.544  641.937 
645.495  236.403  967.824 
735.397  978.196  412.58 
800.389  676.44  150.165 
74.7556  225.734  858.134 
513.583  604.908  238.446 
597.788  736.818  168.651 
951.412  190.956  128.318 
973.035  128.539  440.516 
8.98938  607.424  383.497 
683.205  972.968  917.044 
326.149  619.469  154.439 
294.98  355.873  133.627 
706.579  157.269  809.071 
855.762  231.043  35.7967 
714.904  743.645  639.709 
952.369  342.439  377.519 
122.027  294.858  567.479 
249.363  268.899  695.021 
688.898  276.908  303.438 
73.402  959.13  277.397 
989.465  286.287  895.871 
144.91  580.285  252.736 
277.556  287.871  409.009 
87.6341  144.639  639.056 
122.45  858.561  383.693 
761.177  811.937  725.136 
139.702  932.982  20.9849 
706.201  183.352  288.888 
402.229  871.269  564.799 
704.686  943.69  524.921 
981.102  934.162  810.212 
877.98  80.0789  391.489 
131.723  356.653  678.363 
539.751  443.305  822.007 
179.814  564.774  681.56 
562.524  326.958  494.489 
288.667  465.679  428.463 
308.67  172.886  610.819 
596.577  574.134  483.082 
162.382  279.826  427.764 
686.323  261.934  362.917 
497.541  140.921  442 
888.049  271.662  797.658 
567.419  810.432  241.955 
390.433  989.264  805.733 
73  552.795  133.683 
566.508  840.48  598.365 
993.99  150.158  770.254 
605.818  745.753  345.38 
89.9058  907.155  624.209 
516.688  594.484  885.148 
878.625  93.0325  27.0612 
321.632  980.101  297.728 
120.297  548.527  109.151 
361.271  937.978  99.4079 
168.01  11.9851  651.207 
300.712  577.512  492.679 
898.095  572.509  641.841 
669.357  179.332  388.586 
15.7442  268.257  296.733 
638.973  783.964  890.221 
525.128  663.596  982.257 
551.208  984.247  963.349 
847.954  105.55  512.868 
956.125  465.84  451.838 
56.54  632.868  462.828 
706.766  932.598  41.3309 
200.452  831.7  612.843 
841.311  502.064  791.18 
230.904  516.826  60.4286 
526.657  156.806  843.396 
417.884  680.952  507.984 
401.148  233.167  493.223 
365.505  82.1282  597.777 
877.392  39.2601  64.6082 
330.236  94.8187  696.48 
792.083  800.603  630.071 
832.432  2.06124  462.763 
446.283  842.391  963.831 
238.469  74.3025  481.649 
297.917  599.977  637.459 
142.32  18.8683  319.403 
649.323  419.035  551.574 
143.553  783.558  632.706 
740.349  661.956  670.97 
803.976  991.212  764.792 
501.463  784.302  566.387 
132.54  617.74  567.452 
594.321  65.0301  410.835 
559.159  302.518  484.141 
41.8146  599.454  85.1105 
678.292  740.793  102.982 
996.714  391.123  521.021 
549.295  533.695  305.571 
183.009  275.051  966.531 
852.996  80.0337  958.734 
618.796  580.515  744.028 
186.19  712.075  362.76 
752.66  307.403  426.794 
164.502  865.579  728.317 
647.662  906.413  328.762 
731.792  585.712  70.547 
833.793  583.433  460.674 
355.822  133.735  993.373 
660.411  315.761  269.415 
627.949  169.765  348.453 
587.691  787.579  927.972 
332.726  972.788  641.039 
694.506  726.456  947.444 
122.307  889.977  814.017 
849.642  538.647  721.422 
179.412  271.444  308.126 
248.977  106.245  890.562 
708.67  461.085  25.2884 
703.05  122.502  340.053 
971.484  749.47  508.822 
320.943  338.168  297.394 
249.922  669.912  271.174 
889.98  365.425  996.633 
838.431  486.75  887.602 
653.455  337.399  427.24 
375.884  515.829  697.688 
683.028  763.825  802.937 
574.597  473.502  265.013 
598.903  177.558  386.519 
937.976  150.049  136.981 
447.806  470.011  474.153 
744.218  718.952  145.057 
16.3989  609.938  509.485 
14.0392  449.377  995.24 
900.66  103.838  333.631 
328.907  478.741  848.464 
27.6029  162.776  613.281 
829.558  736.391  87.7753 
95.5786  336.302  264.337 
481.116  275.285  413.39 
617.116  722.109  882.405 
92.2752  467.334  602.348 
236.351  482.751  213.279 
744.855  495.808  661.659 
741.102  397.475  764.502 
75.7399  725.401  244.235 
923.223  752.022  406.014 
537.512  582.587  143.398 
624.306  677.184  478.703 
887.662  159.308  752.991 
302.058  775.442  476.092 
185.47  866.735  942.429 
786.837  104.093  426.171 
1.12211  847.966  920.984 
661.8  590.075  319.451 
427.309  664.833  45.8437 
670.562  589.063  796.87 
77.5843  127.582  380.45 
220  750.905  58.6259 
697.722  639.574  216.938 
451.721  940.65  991.383 
926.831  127.127  859.11 
870.267  912.981  962.208 
297.446  913.122  811.166 
219.436  575.929  402.233 
537.906  4.245  68.0587 
582.768  673.826  656.126 
380.645  750.429  782.71 
760.113  969.449  534.607 
817.758  668.177  175.173 
35.702  120.905  116.816 
28.092  48.7424  242.946 
886.221  918.028  156.919 
849.435  216.481  71.0335 
661.608  434.935  645.967 
64.8489  971.86  649.215 
131.926  555.635  324.033 
787.071  935.298  75.4546 
570.788  696.417  45.8947 
106.403  515.182  713.076 
280.596  549.903  832.984 
396.43  577.013  880.729 
638.395  464.242  799.75 
794.334  314.684  17.2225 
864.386  975.311  451.161 
511.359  41.1667  424.013 
161.581  172.111  978.652 
484.633  958.201  914.942 
559.107  529.995  612.351 
604.021  635.418  128.526 
318.103  915.032  677.432 
152.094  312.469  255.437 
33.8309  949.882  718.683 
832.599  745.222  34.3584 
848.84  610.614  10.6613 
301.009  122.981  50.8318 
724.041  283.58  221.947 
703.7  767.232  181.14 
619.649  327.345  710.14 
233.007  930.384  346.549 
360.552  249.494  262.573 
38.9913  400.606  574.045 
293.448  433.455  524.919 
13.1373  267.062  271.133 
46.5145  116.91  880.752 
56.1946  416.938  4.7242 
106.046  141.986  287.308 
327.011  844.704  55.5319 
507.169  465.36  381.881 
218.317  697.386  313.257 
563.885  58.9448  561.755 
825.477  96.9546  961.365 
400.529  389.421  395.813 
924.467  401.577  661.879 
196.608  447.11  777.792 
78.3667  502.323  195.723 
82.1096  607.386  336.712 
368.437  933.416  182.408 
422.986  441.592  646.773 
803.887  658.928  345.15 
118.151  223.82  403.099 
678.924  50.3032  499.057 
641.297  449.851  887.482 
38.1167  375.325  290.051 
699.015  570.951  736.164 
477.814  648.336  239.478 
672.554  729.465  845.868 
10.2735  98.9075  780.276 
191.701  520.913  222.862 
837.491  325.806  880.794 
183.65  442.975  105.605 
585.766  122.908  154.912 
85.8309  763.222  603.766 
972.331  800.358  978.095 
263.389  500.379  550.038 
998.57  977.211  199.367 
239.056  650.772  927.834 
85.9315  660.064  27.7339 
865.227  850.783  547.651 
89.0954  689.282  872.46 
968.908  871.949  316.429 
75.5197  458.723  438.339 
229.45  543.573  202.554 
832.235  516.91  3.90378 
811.338  779.317  503.286 
362.383  778.894  481.489 
560.768  18.9575  133.254 
489.609  103.907  792.321 
516.362  968.153  644.097 
65.0198  58.255  334.37 
936.499  28.1694  207.312 
253.935  102.707  665.039 
691.294  331.176  209.604 
892.866  164.419  725.518 
895.789  974.776  505.827 
400.082  338.165  285.714 
880.59  897.952  303.675 
14.8501  388.568  406.586 
806.19  903.948  375.731 
451.294  967.987  432.989 
784.683  905.493  460.163 
991.014  160.434  561.874 
657.059  850.746  892.054 
865.682  744.619  57.4651 
592.206  641.415  33.2324 
99.04  42.5035  370.402 
383.772  922.112  269.344 
686.465  935.98  656.916 
94.0588  743.177  561.857 
468.808  195.478  530.835 
900.816  979.18  437.32 
361.986  971.2  596.758 
922.878  629.267  448.496 
815.94  495.955  194.107 
872.424  89.1677  834.526 
904.675  187.226  876.033 
276.083  570.017  799.138 
544.447  257.49  736.11 
202.37  350.567  480.279 
763.244  818.394  674.761 
295.087  720.218  654.932 
731.425  83.21  627.124 
329.191  7.0955  257.382 
776.707  822.054  752.341 
969.833  695.484  840.512 
805.366  601.166  28.7305 
682.406  876.268  597.751 
482.551  421.721  854.245 
219.667  623.109  205.805 
698.966  387.361  25.1903 
374.733  681.466  744.411 
30.6723  413.898  826.625 
656.815  742.108  832.724 
913.216  519.82  655.77 
666.564  490.66  352.246 
508.083  297.033  952.416 
535.833  978.458  829.676 
134.591  462.016  252.388 
987.855  680.702  874.501 
194.667  380.674  262.853 
218.876  754.426  943.323 
962.306  784.117  358.213 
789.938  441.938  101.312 
623.669  356.161  620.136 
280.446  23.732  111.79 
631.711  530.833  407.826 
585.134  67.6734  387.276 
415.817  201.284  848.295 
667.224  190.145  529.989 
542.733  383.83  909.667 
804.605  601.724  665.084 
748.935  565.037  450.192 
108.156  355.981  891.135 
208.487  978.669  248.288 
827.643  260.121  271.024 
938.45  890.852  800.862 
347.284  476.993  867.538 
733.578  891.828  69.8138 
582.88  560.06  258.962 
113.877  103.798  641.797 
24.5507  907.422  244.513 
688.654  657.364  808.554 
139.854  764.538  165.526 
31.9958  972.044  145.187 
279.303  800.694  404.313 
549.346  740.151  296.156 
351.214  88.4413  772.152 
219.76  821.038  664.973 
288.593  404.925  226.024 
546.574  517.82  328.827 
189.378  541.39  237.241 
432.91  231.051  893.609 
242.47  369.923  659.139 
407.015  400.937  632.176 
551.221  679.258  433.86 
954.553  229.611  175.003 
251.715  579.843  262.448 
24.8754  798.622  84.4786 
688.867  88.221  488.408 
913.909  633.814  7.22051 
243.743  822.21  547.615 
480.003  256.126  777.668 
374.619  497.614  148.583 
34.7656  903.648  548.525 
665.959  455.877  228.775 
100.828  411.436  457.39 
274.85  662.17  38.2248 
536.317  686.064  835.85 
619.815  375.938  923.075 
109.23  290.854  557.881 
115.469  533.615  381.083 
662.101  14.6258  636.212 
440.778  388.264  134.819 
588.379  422.047  39.4587 
137.911  89.014  494.339 
365.705  188.859  904.779 
822.113  462.729  567.941 
859.357  998.064  254.997 
696.214  618.886  629.939 
620.296  727.134  919.796 
179.183  841.621  454.405 
559.284  504.729  468.034 
196.503  944.525  855.301 
330.34  533.911  278.34 
368.818  670.84  366.358 
862.176  37.5515  554.222 
767.961  858.682  17.9424 
336.908  719.046  16.9984 
590.924  416.266  634.888 
221.87  37.5683  363.012 
142.673  215.77  205.626 
596.096  774.072  709.359 
65.1373  969.595  654.875 
919.457  300.942  189.778 
198.805  668.778  859.622 
564.182  531.961  896.178 
119.412  300.928  755.852 
136.373  636.856  475.89 
152.39  228.787  891.16 
786.296  449.676  927.732 
150.316  591.367  144.494 
354.961  188.47  917.57 
65.3261  252.626  888.157 
719.22  173.09  190.089 
908.017  370.914  857.871 
768.646  934.114  390.824 
665.831  54.5325  690.755 
422.691  189.923  328.602 
897.6  341.332  556.393 
789.767  128.635  7.05983 
718.506  277.97  597.43 
862.019  631.949  784.904 
780.596  696.293  38.5226 
669.758  416.52  210.617 
858.867  325.545  580.533 
717.745  95.1984  515.639 
109.576  760.048  569.176 
799.35  183.746  758.103 
128.959  82.3528  100.427 
684.37  871.139  228.066 
690.449  590.65  505.039 
288.887  453.676  137.981 
74.7982  235.277  833.278 
112.34  904.055  250.79 
321.974  763.928  575.339 
901.527  482.68  669.541 
418.173  591.274  430.581 
986.368  391.631  613.331 
745.478  519.607  694.687 
844.924  204.985  566.818 
73.9979  894.453  158.46 
578.056  184.345  611.139 
715.056  258.162  845.421 
549.34  369.521  750.467 
799.149  690.513  515.387 
375.495  593.047  997.071 
46.0423  12.227  589.337 
475.642  997.614  979.972 
89.9802  744.099  500.571 
783.687  590.03  704.559 
351.512  663.047  600.004 
508.99  242.11  783.353 
121.137  956.184  42.5083 
965.577  506.531  411.032 
717.051  306.687  102.537 
233.445  681.2  694.588 
231.523  726.261  705.818 
819.879  202.91  704.424 
800.858  291.909  449.515 
302.436  76.602  40.5376 
8.00336  427.131  702.588 
607.027  935.14  943.702 
391.387  57.2843  900.878 
432.915  23.8674  408.401 
842.965  739.937  714.092 
944.521  972.401  396.284 
640.117  204.931  123.537 
346.944  25.8166  325.45 
52.3748  825.693  616.362 
500.908  129.136  691.968 
540.465  136.158  120.093 
244.06  742.203  56.2249 
188.77  134.597  112.513 
90.6543  566.53  135.384 
498.074  410.502  874.324 
213.173  356.031  847.717 
608.476  995.167  53.639 
731.031  343.117  78.4592 
57.4885  394.511  903.156 
672.87  894.438  33.2842 
365.846  435.91  168.446 
484.957  678.989  909.653 
540.201  866.776  45.2419 
651.732  956.45  610.776 
786.135  455.531  22.2705 
661.466  667.722  377.306 
510.19  277.204  373.465 
562.848  9.24209  715.586 
640.326  65.7491  111.089 
544.489  737.638  6.51842 
576.792  104.49  441.432 
744.257  588.465  121.413 
654.916  129.673  987.194 
699.178  780.423  944.635 
310.96  567.565  401.158 
332.249  230.038  69.8718 
708.574  739.247  346.079 
83.046  303.102  354.325 
797.651  942.446  419.078 
907.758  487.943  157.708 
913.295  65.7415  261.202 
355.735  809.017  848.671 
476.166  464.941  977.348 
464.367  165.124  758.763 
410.009  475.103  327.32 
810.185  806.372  556.363 
879.076  515.952  296.602 
226.163  598.016  598.707 
579.507  396.674  542.147 
997.604  305.439  31.0808 
156.319  219.741  95.826 
416.54  574.494  903.847 
266.22  51.6664  369.779 
244.574  515.051  533.907 
4.34477  924.079  10.0025 
330.684  735.271  815.378 
886.065  615.353  332.322 
183.674  840.535  929.342 
781.401  421.049  327.008 
324.553  419.66  631.451 
354.654  574.999  850.195 
449.498  990.558  425.681 
354.352  257.784  476.351 
723.15  501.377  990.407 
258.064  504.74  915.477 
267.086  834.443  651.741 
83.4701  721.515  268.086 
414.81  904.208  109.613 
345.161  686.615  529.666 
671.187  12.1754  948.331 
303.645  365.848  524.321 
154.848  814.364  515.872 
579.548  169.722  772.66 
56.9063  891.891  275.029 
48.3198  150.961  778.773 
962.816  417.065  614.208 
615.564  499.553  336.715 
882.669  913.383  241.915 
