1799
259.072  835.184  945.753 
239.35  825.436  946.147 
260.34  590.031  948.306 
261.526  569.463  931.311 
268.605  591.464  925.967 
285.103  574.802  929.813 
276.63  571.968  950.56 
31.2083  316.958  990.316 
36.3968  327.337  971.233 
9.89682  318.694  967.973 
10.0431  305.588  989.504 
25.0312  305.668  972.139 
10.4155  328.039  989.48 
291.903  10.8087  990.04 
292.592  29.5613  965.041 
259.902  32.0689  989.58 
280.669  9.78278  969.527 
269.92  10.8216  989.77 
270.36  28.6919  966.55 
281.587  32.0892  988.809 
288.625  785.406  951.313 
291.58  794.095  928.015 
260.421  812.362  948.371 
287.788  809.789  945.343 
268.862  792.922  943.689 
592.628  9.51925  967.016 
624.972  10.1494  988.859 
613.519  30.7667  990.732 
625.597  32.9555  971.71 
615.481  10.0576  966.95 
603.277  10.2076  989.363 
602.599  27.3717  972.911 
430.613  948.221  928.343 
409.451  944.212  927.373 
410.071  926.018  946.787 
430.335  932.014  944.649 
419.568  949.959  949.734 
590.828  65.0992  967.695 
559.837  47.2467  989.777 
557.507  67.8794  988.976 
579.75  56.1807  989.364 
569.283  73.0422  966.849 
570.086  50.3262  969.546 
634.378  789.718  932.898 
640.461  789.933  954.324 
662.723  779.235  930.241 
637.112  813.893  947.923 
655.41  798.535  940.073 
770.791  56.2516  970.061 
759.189  49.2975  989.554 
747.734  69.9181  990.174 
748.172  55.3946  970.139 
769.91  70.5309  989.77 
78.8526  910.034  945.711 
104.67  893.999  948.952 
94.8806  906.588  931.214 
101.743  915.229  952.556 
638.251  250.039  989.772 
650.242  250.281  969.712 
651.348  226.721  969.017 
629.896  235.292  969.005 
643.342  230.551  989.512 
661.443  243.376  989.711 
337.939  128.261  967.162 
334.424  118.561  989.112 
349.803  137.796  989.223 
355.992  115.626  990.069 
361.041  124.903  970.32 
910.524  902.465  950.268 
907.415  910.162  929.526 
924.485  892.43  928.004 
892.154  918.94  952.488 
438.085  48.8181  969.652 
427.642  52.2365  989.754 
440.89  72.013  988.873 
415.622  71.9239  989.8 
424.546  69.3637  970.894 
415.392  49.0824  967.568 
247.689  756.155  948.797 
233.097  774.235  943.182 
222.422  776.596  961.706 
230.76  751.65  930.334 
251.793  768.096  927.967 
253.131  746.207  926.553 
233.643  969.673  931.839 
222.801  989.708  935.557 
245.491  990.006  931.978 
235.604  989.769  952.364 
257.607  970.312  930.282 
245.523  969.728  950.411 
792.11  157.149  990.044 
778.974  160.602  964.059 
795.471  183.545  990.986 
812.055  150.88  988.32 
811.276  184.863  966.84 
803.926  159.968  964.639 
814.267  171.03  989.012 
791.457  173.722  974.79 
655.615  113.13  989.234 
664.106  118.595  967.359 
658.74  141.374  969.028 
646.845  137.85  990.184 
634.938  111.485  989.834 
641.034  125.259  970.428 
851.842  751.281  950.342 
839.842  770.026  946.852 
817.643  774.533  946.183 
819.465  742.83  928.839 
838.181  756.241  928.404 
827.282  750.38  949.179 
272.047  822.493  929.603 
293.342  833.92  932.115 
279.214  830.054  950.656 
293.053  848.437  951.265 
332.047  560.109  952.827 
300.919  576.99  948.773 
324.098  582.492  945.535 
314.337  560.853  940.727 
61.1137  316.234  969.527 
72.9201  297.636  989.676 
52.4028  307.443  989.672 
73.1854  320.985  989.346 
44.14  301.817  968.754 
52.0535  329.876  989.789 
314.318  10.6422  990.029 
302.589  9.97573  970.273 
325.885  31.0172  988.974 
325.473  10.0397  969.862 
303.221  31.7659  988.894 
314.436  29.7888  967.2 
831.689  867.987  927.296 
836.533  863.07  949.987 
821.909  887.135  949.715 
842.69  883.403  941.127 
658.163  11.0018  969.604 
647.057  9.81831  989.473 
636.764  29.3672  990.195 
659.092  29.605  989.797 
637.301  10.592  967.533 
647.863  34.7008  970.761 
130.676  48.0215  970.824 
140.457  55.8614  989.67 
142.879  69.3836  968.835 
120.394  67.8976  967.473 
119.251  52.4511  990.449 
616.295  69.6425  989.122 
602.116  51.6099  989.486 
595.505  73.1914  989.979 
625.607  49.7339  989.876 
592.591  44.8265  967.588 
612.636  51.6888  969.646 
684.258  791.384  934.181 
698.148  812.283  950.79 
694.793  811.706  929.101 
675.086  807.091  948.379 
690.621  791.702  956.539 
667.952  782.759  952.428 
781.846  50.1766  989.929 
793.589  56.8021  969.604 
814.721  71.5793  989.536 
792.432  71.0922  989.724 
804.205  50.6244  989.981 
229.068  160.061  989.576 
231.095  175.123  968.534 
240.46  183.644  988.738 
251.884  162.814  989.336 
252.503  178.506  966.307 
244.911  157.969  968.192 
698.387  234.312  971.114 
688.152  255.304  965.617 
685.086  232.02  990.618 
674.35  237.46  971.568 
695.225  251.067  989.29 
674.863  258.254  989.04 
372.335  136.318  989.799 
399.315  114.922  989.328 
382.192  121.136  969.785 
377.6  143.14  967.825 
377.766  114.128  990.072 
395.199  135.721  987.6 
931.015  918.317  955.114 
932.077  896.295  948.625 
950.97  910.481  945.528 
929.549  915.539  934.328 
472.94  54.6631  989.124 
462.512  50.9157  968.968 
450.982  53.6749  989.115 
77.8808  872.009  926.115 
98.5349  884.473  928.476 
96.7945  858.483  929.094 
99.7682  870.612  947.609 
78.9107  858.553  947.074 
82.5441  884.469  948.443 
282.359  989.546  947.431 
269.571  990.372  926.956 
292.838  969.295  952.642 
267.771  965.845  950.424 
259.782  989.138  949.161 
280.48  971.3  932.729 
182.688  549.284  970.702 
183.982  526.815  967.873 
153.553  533.639  988.498 
174.978  521.987  988.986 
162.461  537.816  964.346 
170.912  543.909  989.285 
689.54  136.806  989.571 
701.082  142.956  970.084 
668.291  130.684  988.889 
690.898  118.847  967.846 
679.408  134.506  966.135 
679.285  112.814  989.141 
700.897  113.808  989.681 
179.079  88.1754  989.009 
152.952  77.6244  990.286 
149.5  91.2286  969.802 
175.293  95.9244  966.604 
161.855  99.8664  989.06 
164.081  74.1683  969.897 
315.815  830.57  927.278 
322.336  815.267  946.98 
314.676  849.548  944.893 
304.005  826.722  949.299 
332.636  834.039  948.573 
361.098  586.416  933.455 
337.21  574.514  927.53 
358.885  563.67  932.015 
347.321  577.636  949.74 
348.644  10.44  969.925 
368.839  31.2491  988.443 
336.922  10.3646  989.928 
359.65  10.2474  989.994 
348.127  30.5766  988.398 
338.032  29.154  965.692 
856.514  875.212  953.835 
876.663  866.116  952.23 
878.193  855.357  927.468 
880.541  877.404  933.293 
858.459  867.32  932.796 
534.547  309.426  988.96 
541.842  318.154  969.239 
519.67  331.757  969.383 
554.473  316.744  989.753 
535.846  331.794  989.616 
522.853  308.025  965.006 
182.152  49.5072  990.436 
152.144  49.766  964.345 
173.408  68.3957  989.293 
172.811  52.4279  965.407 
160.224  52.6629  987.812 
647.636  50.2678  989.531 
658.503  71.0977  989.367 
636.931  70.6703  989.325 
634.37  56.5312  968.867 
658.165  56.6657  968.823 
719.752  813.401  944.815 
708.286  792.92  941.954 
731.114  793.542  948.481 
732.343  778.313  930.606 
839.404  57.9845  968.683 
826.464  50.5541  989.339 
836.767  71.3083  989.553 
848.655  50.9792  989.927 
815.997  58.2669  969.842 
274.553  174.673  970.492 
285.673  182.132  989.996 
288.071  156.113  968.834 
264.825  151.226  970.879 
263.28  182.706  989.529 
274.67  161.454  990.06 
734.368  242.897  989.672 
730.914  251.806  966.408 
711.567  252.473  972.749 
722.581  229.323  971.011 
713.359  238.437  990.691 
433.18  130.132  974.786 
441.68  114.765  989.993 
414.237  117.339  970.287 
418.534  132.048  990.891 
414.661  141.613  968.664 
968.872  922.179  952.742 
989.902  911.168  948.017 
970.616  912.515  931.028 
990.037  925.057  928.86 
970.771  899.021  948.199 
990.206  901.288  926.947 
518.408  52.5184  989.695 
505.157  53.7673  970.806 
483.488  66.7351  968.66 
484.196  46.251  967.032 
508.952  71.6211  990.311 
494.42  53.6274  989.649 
142.085  880.556  926.234 
141.436  865.869  947.128 
122.654  878.764  947.622 
118.154  856.369  943.869 
305.285  990.119  946.892 
326.451  969.172  934.298 
304.636  970.58  933.007 
316.353  970.31  953.918 
328.003  990.168  946.973 
210.164  550.078  989.194 
202.691  540.48  967.169 
214.983  526.102  989.378 
193.396  535.366  989.388 
735.316  119.901  967.181 
712.985  119.371  967.492 
736.067  130.926  989.489 
712.87  132.546  989.075 
723.779  111.973  989.329 
723.483  139.662  966.985 
202.31  91.2148  974.847 
186.17  109.111  988.6 
186.947  75.1622  969.205 
216.88  75.3144  988.777 
202.169  93.8531  992.273 
218.799  104.024  967.383 
375.247  165.392  967.94 
403.088  176.058  989.741 
393.523  178.368  969.585 
396.917  155.629  968.621 
377.276  176.944  989.588 
386.708  156.807  989.517 
600.787  953.114  951.866 
616.976  940.772  943.745 
597.69  947.301  930.638 
594.043  930.954  948.824 
120.674  893.281  930.13 
139.087  923.799  940.507 
143.809  889.091  948.698 
116.701  915.188  935.583 
140.366  904.612  930.232 
127.093  904.887  952.748 
929.812  145.753  969.832 
948.061  146.224  989.797 
931.524  134.836  989.535 
934.135  123.287  968.123 
952.366  134.092  969.81 
948.549  120.862  989.942 
919.901  870.719  926.823 
901.957  885.455  930.258 
919.773  856.294  949.181 
892.734  885.59  954.026 
914.176  879.635  949.501 
897.49  863.715  947.126 
901.846  857.11  927.372 
562.469  306.999  968.374 
585.342  302.952  967.972 
581.924  324.655  966.768 
559.641  331.686  969.185 
574.42  317.151  988.686 
215.629  47.2404  968.353 
195.165  71.231  990.103 
192.614  51.9731  973.571 
206.161  52.161  990.205 
207.274  67.8235  968.475 
703.64  55.7779  969.481 
691.912  50.0343  989.64 
679.95  71.2883  989.362 
701.806  70.8196  989.6 
669.719  50.0435  989.254 
681.434  57.1526  969.47 
407.523  902.656  954.845 
428.525  910.447  945.193 
991.138  179.019  970.813 
967.255  178.549  990.104 
972.014  167.783  969.739 
989.151  166.055  990.047 
990.659  155.652  969.651 
968.143  156.147  989.756 
297.937  161.713  989.363 
298.833  180.762  970.86 
320.565  161.661  988.43 
309.262  148.878  972.309 
310.131  181.041  990.389 
332.281  149.709  967.249 
10.2728  937.929  946.39 
9.59431  961.026  950.362 
30.2471  927.707  953.206 
31.0275  941.568  930.038 
29.1026  950.946  950.058 
10.503  952.638  928.689 
454.479  120.136  964.17 
463.232  119.151  988.308 
450.392  141.058  968.205 
476.312  113.038  967.415 
467.927  141.978  989.42 
446.158  135.984  990.705 
475.626  135.099  970.081 
195.871  276.002  968.041 
199.399  290.948  989.805 
204.811  267.399  989.439 
220.934  264.757  969.495 
214.936  287.29  968.436 
539.017  51.9113  989.228 
525.97  47.2896  966.2 
548.165  54.3331  968.928 
527.632  67.2464  971.145 
160.003  852.976  954.969 
180.835  863.804  949.114 
160.554  863.216  931.553 
163.455  877.599  948.641 
183.08  883.607  932.572 
50.3508  147.343  971.479 
67.1383  145.222  988.942 
73.6541  113.356  966.765 
72.2369  122.101  989.319 
49.6149  132.748  990.503 
53.9898  123.48  971.776 
244.527  525.343  968.887 
231.731  541.364  989.35 
253.688  533.418  989.759 
248.729  547.507  970.301 
223.942  533.419  968.307 
757.374  120.329  967.753 
769.019  112.623  989.193 
758.006  132.918  989.936 
746.789  111.351  988.966 
767.845  141.313  968.149 
746.906  141.627  971.798 
257.595  88.3749  968.193 
238.549  75.6606  989.859 
242.144  108.386  969.769 
233.827  87.6587  970.238 
248.158  97.0629  989.707 
225.009  96.8045  989.585 
442.976  163.836  968.938 
437.527  183.293  970.3 
427.515  174.68  990.397 
409.572  154.532  990.01 
417.954  165.985  969.935 
430.678  151.728  987.338 
644.185  946.452  930.608 
633.14  953.618  948.39 
657.46  949.392  951.31 
639.362  931.936  947.963 
173.348  898.29  951.399 
163.376  917.737  927.936 
183.329  906.58  930.653 
176.288  920.684  948.012 
153.601  909.626  950.878 
160.704  894.376  930.866 
971.882  144.266  969.172 
989.783  122.353  989.834 
970.713  111.203  988.887 
989.286  144.258  989.849 
970.284  120.959  967.443 
968.373  133.223  989.613 
990.256  132.381  969.59 
934.184  871.872  944.211 
950.085  860.152  931.135 
951.762  888.009  943.954 
952.509  869.653  954.272 
607.808  296.415  970.525 
617.969  312.736  989.397 
609.719  333.167  989.743 
627.996  309.117  968.467 
604.792  318.83  969.007 
595.24  312.696  989.508 
227.212  53.8701  989.684 
249.812  67.6944  968.908 
228.271  66.1213  968.901 
248.73  54.3144  989.96 
258.907  46.9606  971.018 
237.294  46.5763  968.761 
447.338  900.306  945.341 
466.942  910.633  951.109 
470.885  901.308  928.388 
465.425  924.216  930.44 
449.373  925.032  946.379 
29.7171  200.264  990.238 
10.0135  205.803  967.462 
10.7932  215.831  989.94 
9.57381  195.029  988.259 
29.3014  212.539  970.613 
342.537  160.077  989.181 
334.317  181.192  989.481 
364.067  158.192  989.457 
355.142  148.527  968.812 
354.153  170.842  969.831 
333.42  170.724  966.435 
356.219  182.99  989.862 
52.824  950.609  929.33 
66.0348  930.498  932.293 
47.154  935.319  944.006 
65.7156  947.325  952.003 
712.459  889.206  948.152 
731.831  925.899  948.753 
708.411  900.106  928.359 
715.426  920.982  930.136 
736.973  895.53  951.594 
717.398  910.286  951.391 
734.88  907.911  935.545 
241.495  294.895  990.241 
245.137  268.026  990.045 
239.292  280.294  970.904 
223.987  277.889  989.801 
410.86  198.362  989.903 
433.485  197.928  989.641 
415.936  220.884  989.916 
438.153  219.933  990.11 
425.246  209.026  969.362 
416.549  187.943  970.436 
204.642  870.24  946.101 
187.685  864.403  926.272 
191.473  886.336  951.307 
209.821  853.992  928.245 
95.3097  111.764  990.997 
92.951  123.54  973.411 
108.562  132.913  989.705 
74.2353  136.227  966.551 
96.7653  146.224  969.736 
87.628  138.158  990.075 
293.218  534.638  967.712 
269.995  538.281  969.95 
288.795  544.509  989.608 
275.299  525.888  989.238 
267.733  551.861  989.848 
729.908  205.533  964.579 
708.63  199.036  989.08 
705.169  219.594  989.468 
729.579  217.603  989.568 
708.207  211.25  968.024 
730.623  194.531  988.589 
714.625  187.932  967.858 
290.393  109.897  971.186 
294.174  96.8705  990.118 
282.578  75.6285  989.423 
270.893  96.735  989.671 
260.402  75.9127  989.592 
281.496  89.5008  968.896 
266  109.045  970.23 
463.989  155.364  964.628 
471.833  164.858  989.659 
450.762  159.281  989.401 
451.638  181.817  989.557 
463.802  177.117  969.404 
680.085  951.611  951.424 
682.103  929.474  946.647 
691.924  946.425  931.787 
702.861  953.279  950.461 
667.973  945.673  931.848 
212.634  893.445  955.316 
197.58  910.443  950.248 
207.734  896.137  933.716 
216.275  923.396  946.024 
25.6624  183.034  973.23 
30.5321  156.245  963.52 
27.3952  162.842  986.68 
10.6961  175.98  989.75 
10.2551  166.338  967.784 
9.25067  154.23  990 
770.003  251.477  968.039 
754.096  227.76  990.556 
748.36  238.3  972.337 
757.268  250.566  990.077 
769.752  230.272  968.617 
654.289  331.496  989.517 
641.261  310.762  989.746 
665.513  306.775  989.396 
632.855  332.628  989.753 
645.453  324.951  968.835 
649.619  302.298  969.246 
137.848  359.852  988.988 
135.648  337.243  990.117 
134.397  369.581  965.718 
126.269  347.778  970.379 
115.531  347.855  990.053 
148.076  352.595  967.589 
118.214  370.321  989.308 
518.939  177.538  989.644 
537.565  175.46  969.101 
539.083  162.856  989.597 
545.814  149.737  969.187 
524.995  157.956  967.156 
506.672  904.205  950.459 
488.025  919.376  943.337 
485.298  895.892  946.414 
498.987  904.824  927.425 
70.6793  207.272  989.692 
61.0385  199.884  968.868 
42.553  193.585  969.521 
68.5297  220.93  968.186 
55.7434  189.746  989.426 
48.345  210.601  988.812 
200.772  416.664  988.601 
218.478  429.598  989.628 
201.776  429.212  969.923 
219.329  442.019  968.202 
198.645  441.274  989.969 
102.776  935.252  946.119 
87.1468  928.261  930.269 
80.9888  930.931  952.703 
101.486  952.948  930.878 
90.9771  953.294  951.878 
78.2984  949.542  933.448 
753.826  925.105  944.905 
773.271  918.075  928.329 
776.182  923.953  950.871 
771.395  896.7  927.093 
758.483  904.247  945.915 
293.689  281.258  969.038 
267.382  260.325  989.686 
261.402  271.263  970.565 
282.463  279.307  990.179 
281.406  261.771  968.284 
293.476  259.654  989.621 
275.636  290.829  973.086 
260.522  284.309  990.163 
449.01  200.577  968.848 
481.149  210.276  989.162 
457.456  204.522  989.556 
475.058  187.479  990.282 
472.605  197.89  969.391 
468.444  217.885  967.613 
132.942  112.091  969.871 
147.18  118.37  989.475 
119.936  112.747  989.617 
115.378  132.358  967.994 
137.907  133.78  969.08 
130.27  130.155  989.442 
420.516  661.028  988.924 
424.381  649.37  968.553 
422.053  637.968  989.495 
441.394  649.814  989.941 
751.984  205.1  990.77 
752.863  192.529  972.939 
747.324  215.989  971.845 
773.034  194.185  989.15 
769.495  207.195  966.581 
774.58  216.284  989.038 
122.425  196.801  968.031 
112.183  195.303  989.252 
126.755  212.758  989.11 
134.064  189.73  989.269 
137.973  214.361  968.51 
143.423  193.112  966.5 
506.301  170.407  970.816 
494.349  170.319  990.437 
487.387  182.439  970.866 
512.751  156.007  989.456 
501.941  149.388  967.645 
482.952  159.975  970.605 
716.724  945.049  929.375 
706.126  931.807  948.792 
724.706  947.613  951.334 
734.495  929.856  926.286 
250.642  908.058  929.472 
226.255  913.025  927.035 
251.029  916.74  950.524 
228.511  906.23  948.087 
243.152  891.353  947.228 
46.5027  156.35  990.609 
62.6335  168.759  989.469 
71.248  179.591  969.081 
37.5597  179.426  991.085 
48.5327  171.233  970.754 
70.151  157.113  967.231 
811.798  227.84  967.967 
794.502  241.84  973.006 
797.731  227.054  990.124 
800.369  254.395  990.112 
777.841  238.965  989.727 
928.012  426.972  989.581 
948.184  419.401  988.699 
942.396  428.672  964.896 
947.819  440.86  988.514 
176.389  337.456  988.484 
168.042  335.158  966.689 
169.158  355.851  972.358 
159.296  369.023  990.947 
181.848  358.952  990.356 
156.972  347.08  989.782 
561.648  166.804  969.505 
583.715  156.825  968.548 
579.037  181.451  964.491 
581.608  167.507  989.131 
562.502  153.222  989.994 
558.979  175.452  990.371 
539.379  891.786  929.591 
543.356  904.877  947.256 
522.876  909.947  937.101 
81.1705  203.575  968.426 
78.1227  185.34  989.298 
104.979  207.541  968.552 
91.8301  203.048  989.519 
94.3027  188.469  967.951 
105.572  219.835  990.466 
224.701  416.991  969.521 
241.179  435.744  968.492 
251.169  415.397  968.269 
239.489  422.797  989.344 
253.95  443.843  989.863 
145.539  954.841  931.038 
140.337  947.549  950.057 
123.25  930.289  952.304 
124.772  941.435  930.699 
117.794  952.815  949.731 
785.974  904.633  947.111 
808.996  916.071  960.371 
808.578  902.942  941.741 
325.305  293.176  989.743 
304.167  262.276  969.077 
317.852  260.815  990.28 
311.105  295.231  971.196 
307.193  279.416  989.682 
324.752  273.351  973.468 
513.716  190.787  971.645 
496.095  206.023  969.179 
502.866  218.575  989.524 
498.8  193.527  989.998 
148.591  206.46  989.037 
169.74  199.636  989.741 
162.226  202.277  968.643 
183.173  194.24  971.079 
181.091  217.486  969.151 
167.526  220.445  989.444 
168.922  121.683  989.482 
177.216  117.451  967.352 
155.435  111.522  968.099 
159.497  132.967  969.445 
171.457  141.569  989.668 
183.816  138.324  969.305 
149.966  142.775  989.868 
465.049  660.868  989.506 
446.51  636.514  973.097 
450.623  657.37  968.786 
473.351  648.216  970.824 
461.863  638.892  989.641 
796.312  205.793  990.746 
789.399  219.677  968.667 
788.457  196.021  971.168 
809.02  206.905  973.288 
824.144  161.664  965.897 
847.362  164.884  967.722 
830.808  179.92  975.706 
840.03  175.695  991.319 
833.065  154.879  988.56 
53.1976  284.623  989.29 
44.7444  277.053  968.552 
63.1546  291.695  967.91 
62.6524  268.661  964.141 
73.7081  274.499  989.26 
54.5498  262.049  988.21 
669.625  9.82878  990.09 
670.427  33.0372  969.315 
681.407  29.7923  989.79 
703.629  29.9177  989.294 
691.665  33.9847  968.656 
692.84  9.86614  990.018 
681.079  11.3865  971.67 
789.402  989.397  949.421 
813.319  990.284  948.303 
799.325  969.972  946.566 
802.247  988.503  930.375 
780.174  965.38  935.257 
913.935  224.469  989.332 
903.593  230.535  966.663 
893.044  225.933  988.482 
904.092  244.69  989.565 
912.011  251.825  968.544 
891.268  252.133  970.171 
844.005  253.191  970.08 
836.424  241.159  989.666 
821.345  249.689  970.887 
815.741  238.439  989.653 
833.178  226.888  970.133 
970.323  412.327  990.774 
969.534  434.417  990.727 
990.108  414.114  967.92 
965.386  424.259  972.345 
987.934  435.832  966.131 
989.941  424.585  988.717 
192.148  349.267  968.851 
216.302  350.743  966.843 
218.31  337.685  989.095 
196.732  337.194  989.242 
206.224  357.762  988.832 
599.235  176.027  970.946 
623.231  166.587  968.771 
625.165  152.76  989.536 
605.389  154.758  967.314 
623.974  175.635  989.474 
603.691  162.13  989.77 
870.804  212.024  970.596 
863.098  201.616  989.724 
877.628  189.429  973.106 
887.211  189.887  990.494 
884.513  208.954  989.127 
853.112  187.711  969.759 
81.929  329.247  966.831 
93.8274  311.34  990.027 
102.783  316.695  967.842 
83.7375  305.642  971.314 
275.758  443.186  988.976 
274.595  416.575  968.579 
265.751  437.81  967.746 
262.262  423.051  989.099 
286.064  423.886  989.506 
288.026  440.544  968.623 
845.156  10.2886  989.447 
824.897  10.0087  989.359 
815.348  29.9285  989.839 
837.819  11.7905  969.231 
815.371  11.9936  969.172 
849.695  35.1746  970.324 
837.509  30.3216  989.791 
827.536  34.7921  969.741 
830.43  909.705  949.183 
819.8  918.912  930.458 
846.705  913.404  929.92 
832.435  895.632  928.834 
730.71  336.652  989.56 
736.391  348.171  969.034 
712.007  340.562  969.112 
712.624  362.852  971.929 
711.948  349.779  990.277 
729.848  360.214  989.388 
518.566  213.29  967.865 
538.607  188.047  989.638 
534.522  197.789  966.121 
541.92  211.191  987.788 
520.562  203.185  989.919 
188.461  208.774  989.802 
203.77  195.109  989.341 
202.781  207.724  968.152 
220.692  194.302  968.701 
208.916  218.874  989.531 
573.365  204.287  971.783 
560.819  198.817  990.853 
588.271  219.669  967.643 
586.465  208.286  990.03 
556.422  189.176  973.382 
580.325  187.683  988.127 
563.754  219.32  991.203 
498.828  640.87  971.549 
494.818  663.08  968.319 
485.808  648.831  990.153 
507.778  651.435  990.138 
846.461  220.55  989.6 
822.294  216.67  990.129 
831.572  201.756  971.388 
850.578  210.359  967.189 
817.963  193.277  990.366 
841.388  198.254  990.261 
855.233  156.882  989.271 
868.747  168.528  966.814 
862.127  179.031  989.56 
875.743  152.986  988.549 
881.944  170.873  990.165 
95.6477  264.706  989.77 
93.5577  287.654  989.496 
99.8754  267.23  967.868 
79.5132  261.211  971.621 
104.019  291.402  969.334 
83.0921  282.972  967.104 
715.34  35.2992  969.327 
737.924  33.7194  969.067 
704.798  11.7579  970.049 
715.262  9.85153  989.859 
726.062  11.0491  969.062 
737.521  9.87558  989.415 
725.844  29.4965  989.469 
836.43  990.278  944.16 
823  970.868  947.276 
838.909  971.586  929.771 
847.862  968.667  949.718 
949.831  250.701  966.852 
950.615  227.86  966.513 
949.723  240.057  988.596 
927.672  249.3  990.503 
927.789  236.436  972.443 
933.88  226.615  990.058 
868.796  225.406  989.916 
855.765  232.205  969.442 
880.558  246.103  989.91 
880.039  231.811  968.891 
857.758  244.975  989.781 
867.833  252.957  969.429 
10.5812  446.814  969.871 
9.87074  479.295  971.182 
27.6198  474.705  989.685 
29.5978  451.633  990.052 
9.35407  463.368  988.687 
30.1539  461.125  970.966 
228.484  359.412  989.494 
238.616  352.569  969.546 
251.36  358.556  989.463 
252.833  334.242  970.902 
240.755  338.089  990.24 
639.842  151.747  970.372 
659.11  164.846  970.174 
641.203  178.516  967.235 
645.554  162.778  989.79 
906.685  201.949  989.452 
904.371  188.076  970.693 
914.27  211.595  968.82 
891.866  208.846  965.457 
113.794  303.148  989.582 
143.282  309.44  969.665 
134.743  315.574  989.664 
123.353  300.256  969.552 
125.201  323.807  966.889 
145.998  331.852  971.519 
114.348  325.554  988.813 
301.111  444.334  989.259 
332.049  424.751  990.397 
312.875  437.552  969.475 
322.127  414.929  969.184 
309.637  423.727  989.728 
297.883  417.86  969.684 
883.907  29.9398  990.349 
880.594  9.37043  987.716 
873.462  31.3776  971.569 
860.017  31.2164  989.945 
863.935  10.8529  991.207 
860.488  10.9758  971.411 
887.524  12.7839  968.228 
309.703  224.957  973.278 
329.065  223.414  988.954 
307.47  240.572  990.086 
320.019  247.158  970.303 
771.479  359.417  989.973 
770.115  333.675  990.522 
760.346  360.923  969.75 
754.444  336.338  965.754 
774.729  342.342  972.984 
751.297  348.294  989.182 
385.767  331.495  966.124 
396.331  298.239  990.232 
373.295  311.703  971.17 
383.235  316.95  990.147 
396.913  313.017  970.607 
243.218  220.204  988.976 
241.637  202.307  968.827 
223.448  218.303  968.934 
226.84  203.891  989.86 
252.782  202.532  989.887 
620.324  189.84  968.734 
607.53  207.905  987.679 
597.987  198.252  966.385 
602.793  186.481  990.117 
609.287  221.56  967.509 
628.428  211.162  968.443 
626.144  198.1  989.7 
527.192  638.525  989.283 
519.547  634.469  967.346 
539.894  645.855  967.993 
519.163  656.337  969.571 
550.303  649.756  989.52 
530.99  661.676  990.367 
789.847  261.839  967.602 
778.309  261.473  989.467 
809.96  268.992  970.674 
793.856  276.537  989.508 
813.568  282.581  989.932 
793.848  285.595  968.393 
913.714  167.353  971.243 
905.47  176.539  990.559 
923.914  157.402  990.239 
925.61  182.203  989.773 
899.599  155.055  989.628 
891.06  167.446  971.135 
138.889  284.699  970.018 
138.281  271.252  989.38 
119.777  274.736  968.878 
115.321  280.573  989.7 
135.611  293.48  990.098 
759.599  9.85405  989.134 
770.471  29.5146  989.806 
748.133  29.7036  989.545 
748.795  11.0402  968.646 
771.611  11.2138  967.824 
759.81  31.8415  968.438 
888.853  969.709  932.656 
858.221  988.875  949.617 
871.369  965.293  950.898 
858.202  990.587  928.178 
864.987  971.991  931.476 
879.189  989.045  946.649 
990.382  229.206  967.061 
990.132  224.986  988.99 
968.475  251.82  990.67 
990.126  251.993  966.277 
989.464  244.298  988.801 
970.421  239.76  972.045 
969.147  227.657  991.013 
832.972  332.862  990.293 
830.214  317.381  971.864 
823.623  304.378  990.145 
844.716  310.075  989.781 
252.674  477.402  968.859 
234.153  446.115  989.169 
253.152  455.928  970.384 
241.444  468.512  989.693 
231.98  460.206  968.138 
362.597  271.598  989.921 
348.295  292.99  988.781 
363.099  292.987  964.831 
334.63  291.35  963.958 
349.182  276.086  971.8 
338.806  269.854  990.744 
67.4646  463.954  969.284 
48.7906  474.013  969.082 
50.5946  449.926  968.504 
65.4285  451.478  989.344 
49.7607  465.087  989.881 
947  191.638  989.766 
935.331  213.079  968.558 
928.512  191.68  969.211 
950.823  215.338  989.452 
953.163  203.582  970.594 
928.632  204.884  989.657 
433.918  297.69  969.471 
433.776  332.775  968.338 
443.507  305.017  989.897 
419.831  313.32  973.669 
407.569  318.296  990.68 
430.259  321.455  990.066 
409.879  333.248  968.741 
899.486  9.62134  989.621 
906.524  10.19  968.139 
919.946  11.214  989.615 
916.478  30.8073  969.441 
905.415  28.9236  989.183 
181.954  316.373  989.942 
177.055  296.634  989.339 
156.273  304.448  989.451 
157.976  324.755  989.638 
168.617  312.881  970.098 
361.435  235.045  968.826 
333.546  244.714  989.846 
355.473  248.936  989.525 
351.252  225.633  989.426 
337.452  231.023  968.513 
363.506  256.655  968.046 
342.17  253.983  968.938 
835.405  285.439  989.211 
816.269  294.78  971.073 
841.714  296.112  968.182 
845.277  265.035  989.832 
823.074  262.293  989.978 
832.145  274.888  968.35 
989.552  296.895  968.305 
970.772  332.368  971.375 
970.545  296.441  990.231 
968.301  309.186  971.161 
990.732  332.534  989.621 
990.654  308.037  989.541 
973.075  319.457  990.467 
989.935  319.811  969.764 
785.509  360.012  967.216 
811.282  343.626  989.683 
798.582  338.696  969.125 
809.706  356.811  966.807 
809.343  367.781  989.945 
791.291  351.887  989.393 
645.789  199.568  968.048 
664.829  187.673  973.079 
644.877  209.481  989.104 
665.578  197.527  991.117 
665.54  211.046  972.86 
645.611  185.507  989.36 
665.458  221.475  990.39 
914.076  968.037  953.48 
911.099  970.525  932.202 
924.277  988.267  946.344 
892.779  968.27  952.849 
901.639  989.814  944.407 
952.229  156.455  969.409 
945.937  168.249  990.299 
951.565  180.305  970.403 
933.394  168.892  971.07 
483.091  989.583  950.494 
493.951  964.928  946.082 
516.957  990.017  928.859 
507.003  969.678  925.948 
504.724  988.832  949.015 
516.474  968.633  948.704 
494.16  989.219  929.303 
158.047  283.395  988.778 
181.935  275.17  989.798 
174.989  285.091  969.278 
155.402  270.732  967.164 
176.209  262.348  970.079 
161.751  262.585  989.538 
157.735  294.893  964.971 
275.179  464.394  969.088 
288.005  460.531  990.024 
264.92  464.542  989.789 
285.676  480.379  988.332 
9.06987  270.017  964.458 
28.4606  259.654  969.782 
10.3594  283.698  988.88 
33.0826  271.541  990.236 
8.58707  294.224  966.516 
32.1553  294.046  990.225 
25.2966  282.386  971.074 
10.6251  262.898  989.859 
780.854  34.8597  970.686 
803.581  9.96511  989.752 
793.107  10.8751  970.213 
781.353  9.94201  989.582 
805.688  36.0899  970.613 
793.068  29.7863  989.501 
853.218  317.006  968.567 
877.682  317.689  969.519 
854.959  332.898  989.516 
866.878  310.725  989.734 
876.788  332.581  989.652 
178.883  239.865  968.926 
155.963  248.234  968.464 
165.262  241.39  989.386 
158.5  225.41  968.617 
385.599  273.859  989.52 
371.59  294.082  989.493 
387.324  291.542  971.887 
401.211  269.399  966.806 
374.513  274.885  968.724 
406.309  280.15  988.128 
989.465  206.672  989.047 
972.059  216.372  972.828 
989.113  187.363  989.925 
990.809  204.498  966.708 
968.469  201.942  990.699 
972.352  191.075  971.211 
469.487  315.331  990.136 
475.388  304.213  968.89 
449.561  315.671  969.096 
451.663  325.745  989.057 
475.176  326.488  971.454 
940.522  10.012  989.804 
938.026  26.9592  970.856 
927.957  9.38367  969.316 
951.318  28.6544  989.913 
952.757  10.8433  970.76 
929.614  33.3864  990.306 
219.304  298.5  988.999 
213.1  309.81  968.071 
204.263  315.898  989.167 
188.189  324.508  967.389 
208.751  331.079  966.766 
192.71  301.15  970.644 
386.07  254.229  968.285 
406.453  243.938  968.338 
378.422  251.466  989.345 
397.951  236.66  989.605 
403.212  257.703  989.04 
373.233  228.927  989.627 
384.464  232.362  968.819 
865.524  295.277  971.426 
856.554  288.297  990.14 
880.578  273.717  970.65 
855.862  274.182  969.912 
867.883  267.038  989.813 
880.005  288.591  990.206 
34.1565  351.336  971.308 
10.269  362.252  968.386 
11.0684  340.085  969.476 
31.3993  362.653  990.072 
10.3953  350.94  989.605 
30.5121  339.649  989.999 
842.907  338.837  969.568 
846.231  356.593  989.834 
820.908  337.754  967.714 
827.725  356.929  986.887 
685.182  216.5  969.354 
685.917  207.241  989.522 
690.911  194.418  967.834 
298.273  462.41  970.163 
310.679  469.144  990.392 
318.382  459.973  967.655 
323.481  446.86  989.4 
514.54  286.503  969.504 
512.761  269.284  988.866 
489.828  264.781  990.591 
487.949  281.128  976.327 
502.888  290.135  990.717 
502.298  267.877  965.618 
549.665  970.171  935.703 
540.084  990  927.246 
528.507  989.097  947.693 
550.865  989.662  948.255 
538.567  967.694  952.962 
529.059  969.455  927.054 
501.743  585.334  969.114 
510.947  577.465  989.511 
505.827  563.071  967.796 
487.459  584.976  989.889 
493.398  563.188  990.079 
185.385  253.362  989.812 
202.063  230.255  968.799 
188.023  231.146  989.442 
200.427  253.066  970.463 
222.242  242.087  968.192 
207.275  243.347  989.819 
443.071  275.232  966.704 
408.457  295.222  964.399 
421.262  296.169  989.866 
421.734  279.211  968.803 
424.332  268.892  989.985 
442.457  282.748  988.927 
156.755  394.082  989.827 
164.74  403.615  970.178 
182.29  371.243  967.7 
175.885  383.91  988.562 
156.558  376.932  972.633 
178.727  406.461  990.015 
897.885  332.107  988.797 
910.799  312.236  989.594 
924.689  316.043  971.027 
889.434  310.135  989.664 
911.71  298.209  969.333 
888.911  296.555  970.549 
900  317.374  966.235 
498.778  322.579  968.679 
498.701  302.061  970.639 
492.232  314.035  989.744 
514.333  312.39  988.398 
306.89  381.927  989.328 
318.794  402.536  989.497 
317.445  374.57  966.449 
329.192  381.653  988.99 
307.743  395.771  968.063 
330.798  394.756  966.684 
607.993  77.5637  970.711 
610.687  97.986  966.49 
621.068  91.2587  989.485 
597.818  95.1715  989.803 
629.202  81.4541  968.787 
690.402  315.871  989.12 
689.039  331.236  968.666 
673.995  328.856  989.151 
685.729  306.343  967.771 
667.079  317.887  967.675 
905.556  274.926  970.706 
890.679  267.466  989.924 
904.708  288.771  990.028 
911.192  264.975  989.629 
66.9675  360.421  973.124 
58.9743  338.916  969.319 
51.7503  352.088  989.1 
73.4544  343.531  989.252 
620.457  395.562  988.921 
598.146  387.28  973.489 
620.109  385.33  966.048 
613.702  374.089  988.186 
598.104  400.124  990.058 
592.804  375.293  990.94 
426.487  232.714  970.089 
423.58  243.972  990.01 
443.477  248.46  968.284 
423.745  257.836  969.296 
347.656  446.711  989.595 
352.029  467.213  970.564 
361.778  467.058  990.407 
338.427  451.793  968.414 
335.078  467.188  989.515 
333.453  479.734  969.366 
525.217  290.789  989.393 
537.064  273.602  988.764 
527.6  269.082  965.64 
548.558  268.873  966.401 
551.545  293.8  989.609 
541.045  291.702  969.903 
82.9353  161.092  988.968 
98.1086  178.21  989.725 
104.652  155.853  989.343 
91.6102  166.804  968.026 
228.334  317.214  989.705 
230.831  328.248  970.345 
250.521  315.809  988.302 
256.512  298.676  971.619 
234.344  303.589  967.902 
227.224  254.427  989.708 
243.429  254.564  970.429 
250.251  243.503  989.938 
227.108  232.041  989.483 
242.881  230.956  968.895 
442.08  344.267  988.583 
407.68  358.887  989.642 
419.102  340.196  989.539 
431.293  361.926  989.172 
423.184  353.137  968.773 
585.8  971.281  955.489 
572.366  989.785  947.068 
571.597  970.537  934.014 
561.876  967.602  954.285 
529.85  556.452  966.922 
523.481  578.939  967.898 
532.298  567.487  989.296 
554.517  559.192  989.663 
529.631  590.834  989.585 
551.967  580.982  989.568 
546.018  571.688  968.985 
889.887  379.457  969.493 
911.465  393.489  988.354 
923.669  376.52  989.407 
900.392  373.911  989.621 
911.572  380.373  967.847 
889.926  396.933  989.342 
900.521  402.471  968.957 
444.615  260.814  989.876 
466.508  281.496  965.39 
479.072  263.637  964.896 
459.501  261.672  974.001 
466.94  274.034  990.008 
481.213  293.304  990.78 
460.539  294.772  986.883 
195.327  376.261  988.987 
188.07  393.966  970.936 
200.6  396.606  989.742 
217.113  380.203  989.577 
204.273  371.671  967.621 
213.577  392.655  969.199 
947.698  321.881  967.664 
934.507  318.462  989.758 
951.823  307.437  989.663 
947.633  298.766  969.019 
928.486  297.748  988.981 
955.743  329.767  989.211 
462.924  403.956  968.327 
450.596  386.565  969.608 
453.887  401.503  989.517 
468.992  383.154  989.235 
477.016  404.884  989.415 
468.363  373.78  967.473 
353.209  393.114  968.394 
351.252  380.891  989.585 
362.958  402.322  989.411 
341.001  403.517  988.354 
362.487  371.944  967.142 
340.137  373.793  968.738 
649.299  76.7275  967.492 
631.231  104.441  968.367 
644.418  91.2349  989.016 
653.028  99.0886  968.186 
731.427  324.817  968.349 
732.128  311.174  989.805 
709.744  304.088  989.327 
708.236  316.63  967.904 
711.86  325.918  989.19 
723.972  298.487  969.876 
559.129  357.088  969.812 
578.235  347.364  968.645 
576.521  358.312  989.716 
586.587  335.932  989.138 
562.827  338.699  989.734 
96.2321  356.68  989.414 
86.4222  351.95  968.051 
93.579  333.977  989.078 
77.3494  365.974  990.25 
107.837  365.76  970.141 
104.994  339.807  969.026 
656.952  377.09  989.754 
633.527  406.497  969.206 
647.512  388.044  969.455 
644.018  400.617  990.367 
635.077  377.581  989.783 
779.989  412.937  967.983 
814.024  412.991  967.488 
800.198  413.236  989.655 
796.909  436.85  989.896 
797.756  425.232  968.516 
777.823  423.961  989.418 
778.053  436.501  967.801 
565.272  284.923  968.002 
571.202  262.176  969.61 
582.907  270.869  989.845 
574.828  294.62  989.434 
588.162  281.827  969.992 
561.277  273.646  989.468 
120.025  172.422  989.828 
111.319  177.113  969.005 
120.151  154.471  970.633 
144.96  154.862  969.748 
127.222  150.13  989.838 
132.615  174.521  968.805 
142.072  166.812  989.714 
288.237  320.311  990.437 
270.315  320.904  973.949 
287.598  307.368  968.435 
293.66  330.714  971.517 
296.226  298.874  989.652 
271.119  305.15  990.908 
455.303  337.667  966.121 
472.599  352.071  967.622 
465.714  341.64  989.136 
448.429  359.873  968.847 
479.397  360.714  989.52 
457.182  362.436  989.336 
615.528  965.693  933.976 
614.821  989.547  942.254 
593.285  970.002  933.851 
608.995  971.686  954.279 
594.387  990.505  946.275 
577.266  573.518  989.575 
587.619  584.81  970.072 
566.907  563.606  968.909 
566.241  586.526  968.258 
586.287  556.13  970.92 
293.129  240.909  969.565 
279.746  242.536  989.426 
289.469  223.455  990.275 
265.365  225.638  989.88 
266.244  243.357  970.071 
35.5748  395.838  970.809 
10.3011  373.004  989.221 
10.4697  394.458  989.117 
31.6223  384.067  990.529 
11.8222  407.158  967.885 
27.1936  375.435  968.805 
9.67529  386.682  967.958 
30.2681  405.85  989.932 
248.47  402.195  989.595 
238.674  381.222  989.635 
249.561  372.772  969.131 
236.7  395.219  969.632 
226.55  373.074  968.469 
223.607  404.011  989.767 
853.157  633.871  989.841 
877.46  655.105  969.402 
876.677  630.873  966.428 
858.295  645.174  969.376 
874.468  642.334  989.357 
855.922  657.785  989.529 
956.246  382.85  970.04 
932.743  389.681  972.022 
952.053  398.289  989.122 
931.29  402.187  990.709 
946.212  377.911  990.621 
949.202  406.67  967.003 
395.681  390.011  968.709 
406.767  398.796  989.237 
384.973  401.128  989.156 
374.978  392.792  967.768 
373.246  380.159  989.223 
395.524  378.54  989.663 
384.328  370.657  968.847 
670.286  77.6158  967.293 
676.373  99.826  968.888 
666.837  92.1973  989.192 
692.008  78.2487  967.557 
700.535  99.3697  970.053 
689.479  91.8257  989.37 
764.079  317.116  967.919 
758.505  308.069  989.914 
749.192  326.151  987.747 
744.563  306.343  969.26 
481.569  392.188  968.799 
517.084  391.638  989.249 
514.913  402.862  968.848 
514.344  371.625  987.697 
502.886  384.504  966.801 
497.689  401.734  988.93 
492.476  380.653  990.003 
644.705  423.574  987.968 
636.767  443.825  989.777 
660.16  442.983  989.746 
666.286  420.421  990.351 
657.675  408.212  970.987 
701.676  405.293  970.744 
690.148  394.568  989.066 
672.201  385.113  969.909 
695.004  378.937  968.7 
667.728  397.868  990.147 
679.183  375.237  989.196 
834.807  419.592  968.12 
819.253  428.545  989.068 
842.398  425.4  989.809 
841.784  441.057  971.289 
817.549  438.292  968.445 
623.109  334.075  969.302 
617.257  359.202  967.057 
594.663  362.672  972.038 
624.951  353.803  988.927 
601.678  353.642  990.141 
600.95  340.766  968.771 
611.974  273.917  967.28 
607.102  269.253  988.952 
621.746  291.596  990.127 
593.174  261.367  966.974 
598.198  290.444  990.161 
155.937  175.926  967.84 
180.755  181.666  990.574 
163.779  163.444  989.481 
185.17  156.641  989.116 
156.237  184.378  988.736 
167.525  153.811  968.362 
177.05  173.86  969.852 
326.468  311.91  969.09 
312.326  315.751  988.871 
193.264  132.122  989.736 
205.867  138.782  968.765 
218.721  136.096  990.016 
198.394  115.943  968.734 
209.615  115.278  989.189 
513.977  356.026  966.9 
491.266  367.865  970.431 
501.127  355.505  990.031 
486.499  335.972  990.255 
494.427  344.282  971.227 
510.297  334.013  989.822 
295.698  402.841  989.35 
295.052  375.957  969.385 
283.446  382.095  989.639 
272.553  372.404  967.583 
272.113  402.949  989.551 
261.003  381.418  989.376 
283.188  395.205  969.285 
260.718  394.135  968.609 
600.833  570.055  964.162 
602.426  579.819  988.964 
610.466  591.78  968.242 
624.702  585.264  989.474 
621.521  570.488  969.71 
620.947  562.323  990.085 
597.992  558.916  989.859 
855.538  355.942  967.545 
878.724  358.584  966.783 
888.091  353.763  988.984 
866.72  337.565  968.695 
866.833  355.401  989.109 
46.5662  375.514  975.08 
56.1537  373.363  991.431 
52.8015  395.107  989.589 
58.5046  405.539  970.224 
65.6962  383.921  968.382 
652.806  266.398  989.418 
630.768  286.255  970.747 
649.256  276.33  967.889 
629.976  259.691  969.571 
646.647  289.176  989.623 
629.741  270.898  989.58 
913.358  665.59  988.984 
896.267  639.89  970.719 
896.933  665.218  970.177 
910.309  636.212  989.831 
915.58  651.234  971.428 
894.871  652.758  990.296 
971.046  388.635  989.211 
970.648  401.468  972.307 
989.71  391.198  968.568 
990.241  402.246  989.461 
990.359  379.581  989.91 
437.889  407.375  968.767 
431.657  377.104  967.569 
418.922  379.76  989.466 
431.179  397.386  989.159 
410.199  373.069  969.154 
418.504  396.522  967.653 
444.436  379.777  989.793 
712.029  91.8164  990.126 
714.239  77.6645  971.017 
735.03  91.2266  989.899 
737.955  77.5068  971.508 
723.492  98.7992  969.905 
778.434  312.587  989.164 
798.949  301.672  989.428 
812.939  321.952  989.506 
782.964  325.735  963.057 
792.323  327.828  988.839 
785.374  305.093  969.563 
805.85  316.507  968.907 
555.174  382.537  968.791 
521.685  377.04  964.274 
536.776  378.031  990.539 
555.131  406.985  967.884 
535.461  404.651  989.908 
535.703  392.194  970.472 
683.751  441.465  989.552 
679.601  408.496  971.419 
689.133  418.587  990.157 
693.055  428.347  967.556 
670.587  431.423  970.74 
739.76  390.968  973.503 
707.007  376.049  990.122 
728.894  381.979  990.15 
717.59  387.708  969.783 
711.362  398.235  989.988 
732.068  405.677  990.289 
735.098  370.456  966.785 
865.704  437.86  969.951 
880.744  416.583  970.609 
856.922  416.918  969.286 
888.371  437.783  975.528 
887.796  420.5  990.655 
865.751  423.873  990.014 
665.753  341.018  969.557 
661.617  364.517  970.446 
647.622  355.046  989.913 
637.355  368.912  969.551 
642.233  347.364  969.221 
846.093  608.708  990.261 
814.976  614.31  988.971 
834.173  608.356  970.623 
824.141  595.393  990.171 
832.434  625.993  989.004 
819.579  626.204  967.393 
193.158  159.444  967.399 
219.311  179.808  989.395 
206.828  152.877  989.476 
201.818  182.784  967.781 
199.523  172.864  988.869 
214.114  163.066  969.537 
361.892  330.339  967.819 
339.459  331.084  969.027 
349.083  309.39  969.702 
359.583  315.332  989.987 
336.346  315.016  989.984 
222.95  124.713  969.534 
233.166  117.969  989.653 
227.654  145.673  968.845 
254.931  118.906  989.438 
248.319  131.41  969.434 
241.184  140.646  989.335 
547.141  353.448  990.131 
538.315  343.385  968.411 
538.272  366.457  971.826 
525.064  352.631  989.021 
56.2104  428.591  969.101 
69.6319  430.356  989.843 
48.0274  439.823  989.618 
72.7239  409.502  990.168 
50.2412  417.311  989.613 
329.058  689.58  989.536 
315.532  671.819  989.828 
318.284  691.197  968.916 
300.504  679.253  969.038 
304.753  691.296  989.535 
324.492  668.678  969.794 
888.905  338.419  966.884 
910.826  337.16  967.922 
900.639  358.53  967.686 
910.054  353.831  988.962 
921.864  361.878  967.643 
918.97  333.969  989.512 
97.7348  380.184  989.53 
102.206  393.994  969.289 
95.2679  403.647  989.359 
87.5223  375.376  968.857 
81.1013  399.575  970.038 
75.9142  387.855  989.58 
684.014  279.766  966.753 
667.394  292.467  966.945 
690.773  271.983  989.035 
702.841  293.476  966.567 
668.686  282.263  989.015 
686.999  294.517  988.842 
667.582  265.688  968.58 
928.704  648.583  990.808 
940.318  645.946  973.844 
951.67  658.433  989.956 
929.685  666.562  966.959 
950.984  636.507  990.125 
32.8485  437.2  969.864 
11.6943  426.412  973.505 
34.8209  416.661  970.206 
29.1963  428.129  990.269 
9.7172  415.95  990.457 
9.84064  440.227  990.633 
144.844  500.227  968.402 
139.111  516.373  988.356 
117.417  489.637  989.33 
120.188  500.643  968.802 
137.286  495.754  989.414 
119.45  512.795  989.505 
9.70546  249.659  974.206 
10.629  238.324  991.097 
31.795  226.013  990.121 
30.4332  249.698  989.682 
10.1704  227.69  971.319 
29.8344  236.732  968.016 
559.247  371.924  989.453 
555.65  395.166  989.36 
576.211  374.169  967.866 
576.202  386.666  989.446 
576.452  397.402  968.986 
715.979  507.725  988.889 
734.07  507.838  969.275 
715.48  498.459  966.954 
735.594  517.396  989.913 
732.14  492.627  989.212 
709.166  485.65  989.394 
685.765  355.694  969.957 
670.441  352.768  990.087 
693.225  360.528  989.489 
692.51  339.447  989.153 
738.591  435.871  970.262 
731.89  427.153  989.778 
723.13  410.837  967.522 
710.699  419.692  988.75 
708.049  441.143  989.544 
716.417  430.878  967.39 
989.562  479.605  967.911 
969.738  478.803  990.085 
967.654  468.123  970.634 
989.525  457.074  967.92 
990.09  445.996  988.781 
970.458  456.309  990.383 
990.065  468.529  989.171 
965.411  446.025  971.895 
906.23  437.383  989.894 
922.318  438.429  970.707 
924.119  411.645  970.823 
904.533  425.141  968.179 
909.009  414.401  989.674 
296.224  121.096  989.247 
263.08  140.289  990.334 
273.265  130.476  970.788 
285.691  141.364  988.733 
295.004  132.843  965.784 
276.428  118.41  990.303 
869.875  618.089  989.663 
874.359  608.893  968.844 
854.377  620.187  970.543 
865.883  596.126  989.416 
854.998  593.834  969.933 
103.995  418.774  967.803 
75.7648  443.798  969.648 
94.1033  425.782  989.705 
99.0801  443.031  970.919 
80.5265  421.59  971.7 
364.272  687.346  972.3 
350.927  685.875  989.912 
340.049  688.255  967.44 
350.678  667.778  969.746 
952.29  344.468  968.105 
931.345  341.317  968.919 
939.255  339.006  989.205 
930.911  357.245  989.733 
953.222  355.39  989.977 
943.308  365.055  971.55 
538.851  459.58  970.937 
531.843  450.415  989.556 
530.99  474.378  990.163 
552.379  464.026  989.64 
716.537  262.862  990.384 
707.831  283.298  988.679 
728.275  287.219  989.882 
724.923  275.158  969.066 
738.325  266.397  989.414 
703.845  271.509  968.055 
965.381  637.154  970.217 
970.38  659.204  967.98 
989.195  646.548  968.63 
989.904  660.134  989.661 
970.893  648.154  989.495 
990.01  638.378  989.288 
306.525  553.627  966.566 
327.748  546.028  970.52 
311.576  539.775  989.272 
297.018  520.928  989.555 
333.301  532.061  989.545 
315.061  526.611  969.252 
137.644  382.146  988.87 
137.185  404.996  988.778 
121.394  385.233  967.848 
116.832  393.746  989.775 
143.326  392.758  966.284 
62.0697  227.681  990.389 
49.281  242.003  989.291 
47.5754  251.767  966.198 
47.816  225.618  971.25 
66.6945  242.301  971.731 
577.211  491.326  966.047 
574.307  499.239  989.553 
587.322  513.342  973.062 
556.817  497.311  974.371 
567.117  513.085  963.989 
910.629  532.99  989.968 
905.492  555.561  988.316 
892.272  519.617  990.068 
919.948  547.025  969.412 
898.019  537.646  971.716 
912.878  521.717  968.091 
157.622  486.86  989.695 
157.961  509.032  989.155 
166.063  513.308  967.372 
169.109  491.42  969.378 
178.306  498.849  989.596 
769.045  493.187  969.153 
756.768  513.821  969.664 
755.628  482.674  989.704 
746.342  491.252  967.112 
771.708  513.56  989.133 
752.829  503.407  989.456 
777.16  493.431  989.665 
821.025  472.827  989.927 
833.3  465.436  970.893 
846.092  468.197  989.772 
833.762  448.904  989.922 
672.495  464.535  989.66 
695.746  450.407  969.992 
683.759  471.743  968.244 
694.879  463.483  989.79 
671.157  453.053  969.437 
757.252  414.183  990.828 
754.836  436.331  989.551 
744.17  413.058  972.926 
